ply
format ascii 1.0
element face 0
property list uchar int vertex_indices
element vertex 200
property float x
property float y
property float z
property uchar diffuse_red
property uchar diffuse_green
property uchar diffuse_blue
end_header
-4.736173e-02 -6.455938e-02 -2.253393e+00 105 100 55
-4.736173e-02 -6.455938e-02 -2.253393e+00 105 100 55
-2.708991e-02 8.112612e-02 -2.131730e+00 32 41 33
-2.708991e-02 8.112612e-02 -2.131730e+00 32 41 33
-3.306933e-02 -7.017833e-02 -2.177132e+00 113 99 59
4.769223e-02 -9.310356e-02 -2.255636e+00 19 19 17
-1.403852e-01 -9.536441e-02 -2.221271e+00 18 17 14
-1.233399e-01 1.966238e-02 -2.122550e+00 31 36 30
1.730628e-02 -6.152302e-02 -2.189130e+00 40 47 36
-9.389438e-02 -4.029601e-02 -2.141252e+00 106 98 55
-9.342141e-02 -3.999485e-02 -2.138726e+00 106 98 55
1.351915e-02 -8.900005e-02 -2.222311e+00 100 90 49
-9.289958e-02 -8.896214e-02 -2.196680e+00 108 99 55
-1.305822e-01 -6.828114e-02 -2.199856e+00 85 78 54
-6.578947e-02 -3.377793e-02 -2.121144e+00 112 77 44
-6.641013e-02 -3.339683e-02 -2.122364e+00 112 77 44
-1.144183e-01 -9.039176e-02 -2.203035e+00 16 17 12
8.685803e-03 -3.549897e-02 -2.139888e+00 97 92 49
3.890966e-03 -2.933595e-02 -2.135578e+00 83 37 21
4.341399e-03 -2.971098e-02 -2.133872e+00 83 37 21
-2.110588e-02 -9.974599e-03 -2.117505e+00 75 35 10
-2.110588e-02 -9.974599e-03 -2.117505e+00 75 35 10
-5.459294e-02 -9.847289e-03 -2.109872e+00 82 32 24
-5.462016e-02 -9.757903e-03 -2.109919e+00 82 32 24
-6.626344e-02 -9.884425e-03 -2.107881e+00 84 34 15
-4.509700e-02 -6.038029e-03 -2.108591e+00 96 89 53
-6.876922e-02 1.624128e-03 -2.099048e+00 83 34 20
-3.339318e-02 -3.960841e-02 -2.133648e+00 84 36 14
-3.354924e-02 -3.958119e-02 -2.133876e+00 84 36 14
-5.979276e-02 -3.953813e-02 -2.128244e+00 88 35 20
-2.827662e-02 -3.578257e-02 -2.133178e+00 108 94 53
-2.824153e-02 -3.578141e-02 -2.132732e+00 108 94 53
-4.657020e-02 -3.582824e-02 -2.128683e+00 108 95 58
-6.386636e-02 -2.995639e-02 -2.120669e+00 101 88 51
-5.880168e-02 -2.899030e-02 -2.122005e+00 84 35 21
-6.888143e-02 -2.715218e-02 -2.118368e+00 82 30 16
-3.987141e-02 -1.063748e-02 -2.113682e+00 79 31 10
-3.978991e-02 -1.080517e-02 -2.113376e+00 79 31 10
-6.028219e-02 -9.522317e-03 -2.108053e+00 100 86 67
-3.380016e-02 -3.623376e-04 -2.108462e+00 100 80 47
-5.225576e-02 -2.514241e-04 -2.104846e+00 92 89 51
-1.946236e-02 2.437830e-03 -2.110106e+00 76 34 19
-3.823223e-02 1.986527e-03 -2.104932e+00 83 30 19
-5.739797e-02 7.828495e-04 -2.101517e+00 80 32 18
-5.739797e-02 7.828495e-04 -2.101517e+00 80 32 18
-1.550622e-02 -3.839381e-02 -2.136882e+00 82 32 11
-6.537801e-02 -3.764399e-02 -2.125658e+00 107 96 57
-6.537801e-02 -3.764399e-02 -2.125658e+00 107 96 57
1.384680e-02 -3.291577e-02 -2.138949e+00 78 31 14
-4.686095e-02 2.748865e-03 -2.103265e+00 81 33 16
4.767275e-01 -3.319183e-01 -2.208718e+00 143 124 49
1.163101e-02 -3.980612e-02 -2.144068e+00 84 46 16
1.545204e-02 -3.820686e-02 -2.142585e+00 103 78 53
1.836568e-02 -3.210261e-02 -2.138455e+00 105 77 53
-1.929480e-02 -3.536342e-02 -2.134418e+00 116 77 58
3.413424e-03 -2.192890e-01 -2.280555e+00 26 27 19
3.413424e-03 -2.192890e-01 -2.280555e+00 26 27 19
6.584307e-02 -3.130259e-02 -2.214023e+00 32 41 30
7.165179e-02 2.404636e-02 -2.166516e+00 33 39 35
1.275218e-02 -1.847991e-03 -2.116282e+00 81 25 18
1.048243e-02 -1.719696e-01 -2.284625e+00 44 46 39
3.401136e-02 -1.379702e-01 -2.267431e+00 166 148 99
-1.396769e-01 -1.348286e-01 -2.249246e+00 168 156 98
1.357220e-02 -8.905731e-02 -2.224213e+00 100 90 49
8.065582e-02 -6.779582e-02 -2.238767e+00 172 157 101
3.713531e-02 -3.976386e-02 -2.168351e+00 102 92 59
8.568396e-02 -6.636721e-03 -2.188480e+00 180 166 106
-6.687747e-02 1.290518e-01 -2.109390e+00 57 74 58
-1.690818e-01 -1.029742e-01 -2.229828e+00 173 161 104
8.353153e-02 -5.179064e-03 -2.194261e+00 179 165 104
-6.783651e-02 1.308126e-01 -2.114688e+00 56 72 58
4.774033e-02 -6.740837e-02 -2.234079e+00 82 76 48
-8.940615e-02 2.436747e-02 -2.094298e+00 150 140 99
7.012012e-02 -1.017887e-01 -2.247984e+00 164 148 94
7.561243e-02 -1.553743e-02 -2.197023e+00 45 50 44
5.822986e-02 5.842721e-02 -2.176106e+00 59 71 50
-1.394269e-01 5.439248e-02 -2.129946e+00 58 64 49
2.218835e-02 -1.304677e-01 -2.262448e+00 52 59 42
6.644959e-02 -7.535963e-02 -2.240419e+00 42 46 28
5.961285e-02 3.945635e-05 -2.175479e+00 38 39 31
-3.878730e-02 -3.993475e-03 -2.109401e+00 80 33 20
1.932910e-02 -3.718355e-02 -2.144869e+00 86 34 14
-5.656882e-02 -3.484383e-02 -2.125514e+00 105 91 57
-4.133105e-02 -3.410977e-02 -2.129761e+00 82 30 17
-3.218017e-02 -2.586697e-02 -2.125117e+00 85 34 16
-2.870032e-02 1.003622e-03 -2.108380e+00 79 34 17
-4.697690e-02 3.115945e-03 -2.103407e+00 81 33 16
4.774364e-01 -3.306992e-01 -2.213102e+00 143 124 49
2.159289e-02 -3.072598e-02 -2.136755e+00 83 47 22
-3.405906e-02 -6.895429e-02 -2.182546e+00 111 102 65
1.357401e-02 -2.171591e-03 -2.116858e+00 75 27 11
1.357401e-02 -2.171591e-03 -2.116858e+00 75 27 11
-1.635190e-01 -6.868334e-02 -2.193132e+00 179 166 111
5.033135e-02 -1.140288e-01 -2.277641e+00 47 56 40
-6.166284e-02 -5.998855e-02 -2.169597e+00 111 104 65
2.372423e-02 -1.253845e-01 -2.301102e+00 158 148 97
-7.574734e-02 -7.237735e-02 -2.187519e+00 39 47 38
-1.501452e-01 -7.637157e-02 -2.199652e+00 42 47 34
-8.916685e-02 2.476151e-02 -2.095936e+00 154 143 99
-6.673339e-02 -5.573838e-02 -2.166326e+00 108 102 67
-7.074808e-02 -3.931774e-02 -2.127568e+00 83 38 17
-4.663759e-02 -3.558424e-02 -2.129229e+00 106 89 51
-2.911397e-02 -1.013288e-03 -2.110550e+00 77 33 20
-6.936510e-02 1.775122e-03 -2.100909e+00 78 32 17
-1.155775e-02 -3.345076e-02 -2.162763e+00 77 34 15
-2.425210e-02 -3.891613e-02 -2.135089e+00 84 36 14
-3.381730e-02 -3.257644e-04 -2.108479e+00 96 79 50
2.205621e-02 -3.052318e-02 -2.137355e+00 77 48 18
-8.196130e-02 -6.587760e-02 -2.152775e+00 35 39 36
5.090673e-02 -1.126333e-01 -2.278172e+00 46 54 39
-7.128678e-01 8.813024e-01 -3.819863e+00 168 155 103
-1.380570e-01 -1.305204e-01 -2.258723e+00 175 159 104
3.778852e-03 -7.300364e-02 -2.199381e+00 37 45 32
-1.473057e-01 -5.388890e-02 -2.187772e+00 47 50 43
1.669943e-02 -5.426573e-02 -2.182995e+00 29 31 28
1.355011e+00 2.030693e+00 -6.138205e+00 75 58 36
-1.354827e-01 -1.923719e-01 -2.301192e+00 131 122 63
-1.553187e-01 3.983510e-03 -2.169287e+00 174 163 104
-1.397982e-01 5.522485e-02 -2.133841e+00 66 75 57
-1.302377e-01 -1.384736e-01 -2.279469e+00 29 35 24
3.022475e-02 -1.300354e-01 -2.268283e+00 162 149 99
-1.398433e-01 4.356139e-02 -2.131669e+00 60 65 48
7.888365e-02 5.693305e-02 -2.178444e+00 64 76 53
-7.068089e-02 -3.943803e-02 -2.127358e+00 86 34 17
3.922937e-03 -4.024094e-02 -2.137569e+00 89 40 21
-2.842186e-02 -3.535187e-02 -2.134871e+00 100 87 53
-3.225363e-02 -2.588829e-02 -2.125177e+00 84 35 23
2.166293e-02 -1.350781e-01 -2.281986e+00 159 149 94
-1.047151e-02 -3.692860e-02 -2.136371e+00 102 87 54
-1.055825e-01 6.382002e-02 -2.099017e+00 181 165 105
-6.129676e-01 9.065374e-01 -3.877702e+00 24 21 12
-5.131397e-02 -1.496944e-02 -2.201405e+00 93 40 16
-1.028392e-02 -3.726446e-02 -2.135998e+00 107 87 55
-1.482523e-02 -3.945533e-02 -2.137357e+00 93 44 21
6.157131e-02 1.653965e-01 -2.685365e+00 180 163 105
-1.350699e-01 -1.279590e-01 -2.262486e+00 165 152 96
6.869227e-02 -1.016070e-01 -2.246376e+00 162 148 94
-3.206967e-02 -2.579902e-02 -2.125396e+00 85 34 16
-1.320815e+00 1.017501e+00 -3.984641e+00 34 31 22
-1.328062e+00 1.062295e+00 -4.059294e+00 158 137 100
-1.442288e-01 1.416255e-01 -2.130687e+00 175 161 101
-2.692857e-02 7.603285e-02 -2.124306e+00 31 37 35
8.915124e-03 -3.570566e-02 -2.140724e+00 97 83 52
-5.891487e-02 -2.806132e-02 -2.120257e+00 89 34 17
-5.129041e-02 -3.940562e-02 -2.129522e+00 87 39 19
-1.536442e-02 -3.847314e-02 -2.137796e+00 84 41 19
-2.362724e-02 -3.137614e-02 -2.131564e+00 85 33 19
-2.871944e-02 8.074420e-04 -2.107906e+00 82 31 18
3.385223e-02 -1.881189e-01 -2.287080e+00 157 145 90
2.248299e-01 -9.029634e-02 -1.487776e+00 100 87 42
2.248299e-01 -9.029634e-02 -1.487776e+00 100 87 42
5.504976e-02 -1.673439e-01 -2.281328e+00 168 157 95
-1.472614e-01 -9.261477e-02 -2.205001e+00 15 14 12
-3.533443e-02 -7.107055e-02 -2.178641e+00 105 104 56
6.055003e-02 -9.074212e-02 -2.269153e+00 16 17 14
-1.020390e-01 -1.509075e-01 -2.230131e+00 82 77 53
-1.092002e-01 -1.514144e-01 -2.219060e+00 82 75 51
-9.620502e-02 -8.992647e-02 -2.184818e+00 99 95 52
-8.851876e-02 -6.429703e-02 -2.154610e+00 27 38 24
-1.761010e-01 -5.435575e-02 -2.180446e+00 179 162 105
8.955551e-02 -6.831863e-02 -2.259267e+00 174 162 104
-6.845647e-02 4.233182e-02 -2.118443e+00 26 37 25
-1.360907e-01 -1.392821e-01 -2.232093e+00 19 23 19
-1.684518e-01 -1.085942e-01 -2.203958e+00 52 60 40
-1.013893e-01 -4.667974e-02 -2.125351e+00 103 96 56
-1.750875e-01 -7.678948e-02 -2.178206e+00 29 30 23
9.031202e-03 -7.326992e-02 -2.207117e+00 48 51 38
-1.085854e-01 7.677421e-02 -2.181853e+00 60 65 40
7.432653e-02 6.430343e-02 -2.180958e+00 172 151 105
-1.501095e-01 -1.315053e-01 -2.216205e+00 158 149 94
-1.656043e-01 -1.253787e-01 -2.182530e+00 50 56 38
-1.644546e-01 -6.250838e-02 -2.181281e+00 51 59 41
-8.735428e-02 2.469785e-02 -2.097494e+00 146 140 102
4.411548e-02 1.300467e-01 -2.169405e+00 52 61 55
-1.520794e-01 -1.673946e-01 -2.285083e+00 148 136 85
-1.776841e-01 -1.162224e-01 -2.196141e+00 166 157 100
-7.068960e-02 -3.959557e-02 -2.124121e+00 81 39 17
-7.068960e-02 -3.959557e-02 -2.124121e+00 81 39 17
-1.576103e-01 -1.034288e-03 -2.163718e+00 172 157 100
-9.288561e-02 4.139268e-02 -2.134413e+00 54 54 42
-6.315188e-02 1.135335e-01 -2.124643e+00 57 70 50
-1.724085e-01 -1.177931e-01 -2.195419e+00 64 65 39
-4.223763e-02 -3.477523e-02 -2.139617e+00 101 85 52
-5.331038e-02 -3.331461e-02 -2.133324e+00 97 88 49
9.453007e-03 -3.699487e-02 -2.157052e+00 86 39 16
1.645378e-02 -1.561073e-01 -2.267589e+00 81 74 36
2.225268e-02 -1.784762e-01 -5.416236e-01 0 255 0
2.112698e-02 -1.784617e-01 -5.916109e-01 255 255 0
5.778845e-01 -3.080739e-01 -5.504490e-01 255 0 0
5.630059e-01 -3.062694e-01 -5.981499e-01 255 255 0
1.109570e-01 -3.639044e-01 -7.194286e-01 0 255 0
1.051644e-01 -3.607642e-01 -7.689926e-01 255 255 0
9.414054e-01 -5.080633e-01 -8.002557e-01 255 0 0
9.150905e-01 -4.962562e-01 -8.410983e-01 255 255 0
1.638770e-01 -5.937199e-01 -5.814905e-01 0 255 0
1.579728e-01 -5.836971e-01 -6.301185e-01 255 255 0
-6.453841e-01 -2.091791e-01 -7.582584e-01 255 0 0
-6.295584e-01 -2.117555e-01 -8.056177e-01 255 255 0
-5.998795e-01 -3.493347e-01 -6.690685e-01 0 255 0
-5.848766e-01 -3.452322e-01 -7.165878e-01 255 255 0
