ply
format ascii 1.0
element face 0
property list uchar int vertex_indices
element vertex 291
property float x
property float y
property float z
property uchar diffuse_red
property uchar diffuse_green
property uchar diffuse_blue
end_header
-4.368779e-02 -6.351138e-02 -2.254799e+00 105 100 55
-4.368779e-02 -6.351138e-02 -2.254799e+00 105 100 55
-1.746678e-02 8.355813e-02 -2.135287e+00 32 41 33
-1.746678e-02 8.355813e-02 -2.135287e+00 32 41 33
-2.704679e-02 -6.873212e-02 -2.178761e+00 113 99 59
5.098036e-02 -9.336405e-02 -2.263557e+00 19 19 17
-1.383829e-01 -9.145756e-02 -2.228605e+00 18 17 14
-1.152297e-01 2.306072e-02 -2.123775e+00 31 36 30
2.318826e-02 -6.073415e-02 -2.193239e+00 40 47 36
-8.678161e-02 -3.734419e-02 -2.142451e+00 106 98 55
-8.598044e-02 -3.717937e-02 -2.138619e+00 106 98 55
1.797092e-02 -8.749251e-02 -2.229444e+00 100 90 49
-8.859986e-02 -8.681010e-02 -2.198015e+00 108 99 55
-1.261771e-01 -6.452533e-02 -2.204259e+00 85 78 54
-5.736961e-02 -3.136973e-02 -2.120851e+00 112 77 44
-5.830607e-02 -3.080154e-02 -2.123071e+00 112 77 44
-1.097969e-01 -8.755864e-02 -2.204451e+00 16 17 12
1.644629e-02 -3.424055e-02 -2.142372e+00 97 92 49
1.197141e-02 -2.824807e-02 -2.137535e+00 83 37 21
1.258726e-02 -2.846066e-02 -2.135509e+00 83 37 21
-1.237612e-02 -8.376065e-03 -2.118196e+00 75 35 10
-1.237612e-02 -8.376065e-03 -2.118196e+00 75 35 10
-4.566356e-02 -7.456738e-03 -2.110263e+00 82 32 24
-4.550918e-02 -7.460160e-03 -2.109888e+00 82 32 24
-5.723076e-02 -7.253395e-03 -2.108048e+00 84 34 15
-3.607740e-02 -3.548335e-03 -2.110180e+00 96 89 53
-5.940453e-02 4.439313e-03 -2.099347e+00 83 34 20
-2.557612e-02 -3.781102e-02 -2.135236e+00 84 36 14
-2.578249e-02 -3.759284e-02 -2.135585e+00 84 36 14
-5.194219e-02 -3.719964e-02 -2.129165e+00 88 35 20
-2.031064e-02 -3.389593e-02 -2.134703e+00 108 94 53
-2.033784e-02 -3.388641e-02 -2.134475e+00 108 94 53
-3.853906e-02 -3.361556e-02 -2.129705e+00 108 95 58
-5.561384e-02 -2.746367e-02 -2.121774e+00 101 88 51
-5.053794e-02 -2.660560e-02 -2.122653e+00 84 35 21
-6.039787e-02 -2.455310e-02 -2.118492e+00 82 30 16
-3.101328e-02 -8.647285e-03 -2.114002e+00 79 31 10
-3.082723e-02 -8.719628e-03 -2.113551e+00 79 31 10
-5.136431e-02 -6.799902e-03 -2.109203e+00 100 86 67
-2.471518e-02 1.521907e-03 -2.108743e+00 100 80 47
-4.306729e-02 2.409504e-03 -2.106315e+00 92 89 51
-1.036112e-02 4.156667e-03 -2.110194e+00 76 34 19
-2.892974e-02 4.450191e-03 -2.106680e+00 83 30 19
-4.794864e-02 3.319775e-03 -2.101664e+00 80 32 18
-4.799911e-02 3.611619e-03 -2.101737e+00 80 32 18
-7.721774e-03 -3.674400e-02 -2.138963e+00 82 32 11
-5.748240e-02 -3.523575e-02 -2.126522e+00 107 96 57
-5.739565e-02 -3.522236e-02 -2.126981e+00 107 96 57
2.173590e-02 -3.161031e-02 -2.141460e+00 78 31 14
-3.748277e-02 5.005539e-03 -2.103779e+00 81 33 16
4.796649e-01 -3.394012e-01 -2.221933e+00 143 124 49
1.935011e-02 -3.891751e-02 -2.146190e+00 84 46 16
2.332306e-02 -3.719187e-02 -2.144651e+00 103 78 53
2.639490e-02 -3.096299e-02 -2.141311e+00 105 77 53
-1.139320e-02 -3.362746e-02 -2.136373e+00 116 77 58
3.940226e-03 -2.196147e-01 -2.286749e+00 26 27 19
3.940226e-03 -2.196147e-01 -2.286749e+00 26 27 19
7.122402e-02 -3.366034e-02 -2.211518e+00 32 41 30
7.931557e-02 2.222958e-02 -2.165149e+00 33 39 35
2.191596e-02 -4.482356e-04 -2.118569e+00 81 25 18
1.167321e-02 -1.726979e-01 -2.290384e+00 44 46 39
3.649853e-02 -1.373582e-01 -2.273190e+00 166 148 99
-1.378596e-01 -1.322616e-01 -2.251072e+00 168 156 98
1.826645e-02 -8.866986e-02 -2.227140e+00 100 90 49
8.517071e-02 -6.808654e-02 -2.246876e+00 172 157 101
4.411114e-02 -3.892423e-02 -2.171963e+00 102 92 59
9.269341e-02 -6.738167e-03 -2.194010e+00 180 166 106
-5.612145e-02 1.324221e-01 -2.111788e+00 57 74 58
-1.663876e-01 -9.967364e-02 -2.231330e+00 173 161 104
9.036846e-02 -5.064216e-03 -2.201269e+00 179 165 104
-5.725931e-02 1.342388e-01 -2.117379e+00 56 72 58
5.256847e-02 -6.556011e-02 -2.242998e+00 82 76 48
-7.958842e-02 2.756621e-02 -2.094067e+00 150 140 99
7.373786e-02 -1.029369e-01 -2.251410e+00 164 148 94
8.218434e-02 -1.550794e-02 -2.202748e+00 45 50 44
6.641438e-02 5.915719e-02 -2.181825e+00 59 71 50
-1.308145e-01 5.856484e-02 -2.130637e+00 58 64 49
2.485392e-02 -1.304547e-01 -2.267650e+00 52 59 42
7.032549e-02 -7.581895e-02 -2.243458e+00 42 46 28
6.703872e-02 3.998919e-04 -2.180009e+00 38 39 31
-2.969221e-02 -1.951484e-03 -2.109702e+00 80 33 20
2.707292e-02 -3.649213e-02 -2.146955e+00 86 34 14
-4.851061e-02 -3.236831e-02 -2.126739e+00 105 91 57
-3.327891e-02 -3.208588e-02 -2.130585e+00 82 30 17
-2.394104e-02 -2.409138e-02 -2.126281e+00 85 34 16
-1.939044e-02 3.033226e-03 -2.109235e+00 79 34 17
-3.770695e-02 5.146056e-03 -2.103661e+00 81 33 16
4.810642e-01 -3.380819e-01 -2.229312e+00 143 124 49
2.971793e-02 -2.972955e-02 -2.138989e+00 83 47 22
-2.859409e-02 -6.726057e-02 -2.186146e+00 111 102 65
2.386888e-02 -7.471585e-04 -2.115923e+00 75 27 11
2.451503e-02 -1.642767e-03 -2.115161e+00 75 27 11
-1.653746e-01 -6.320631e-02 -2.205324e+00 179 166 111
5.211996e-02 -1.142051e-01 -2.287521e+00 47 56 40
-5.529420e-02 -5.809042e-02 -2.170197e+00 111 104 65
2.028990e-02 -1.242208e-01 -2.319784e+00 158 148 97
-7.357856e-02 -6.952595e-02 -2.195888e+00 39 47 38
-1.539611e-01 -7.127481e-02 -2.216502e+00 42 47 34
-7.950017e-02 2.834702e-02 -2.096731e+00 154 143 99
-6.240745e-02 -5.287232e-02 -2.171840e+00 108 102 67
-6.281167e-02 -3.669479e-02 -2.127938e+00 83 38 17
-3.860135e-02 -3.333411e-02 -2.130289e+00 106 89 51
-2.003031e-02 1.369529e-03 -2.112765e+00 77 33 20
-5.928841e-02 3.905608e-03 -2.098776e+00 78 32 17
-4.403420e-03 -3.229082e-02 -2.164537e+00 77 34 15
-1.626333e-02 -3.727141e-02 -2.136279e+00 84 36 14
-2.475376e-02 1.523976e-03 -2.108738e+00 96 79 50
3.119769e-02 -2.993207e-02 -2.137574e+00 77 48 18
-7.537705e-02 -6.267975e-02 -2.156639e+00 35 39 36
5.332868e-02 -1.134392e-01 -2.283062e+00 46 54 39
-8.373640e-01 9.977671e-01 -4.120958e+00 168 155 103
-1.371640e-01 -1.274969e-01 -2.266596e+00 175 159 104
8.834574e-03 -7.154700e-02 -2.204712e+00 37 45 32
-1.406504e-01 -5.271886e-02 -2.178912e+00 47 50 43
2.290577e-02 -5.326282e-02 -2.187331e+00 29 31 28
1.443674e+00 2.355278e+00 -7.107162e+00 75 58 36
-1.360721e-01 -1.910155e-01 -2.302882e+00 131 122 63
-1.484753e-01 7.445485e-03 -2.168104e+00 174 163 104
-1.293160e-01 5.608044e-02 -2.126676e+00 66 75 57
-1.280979e-01 -1.379608e-01 -2.272674e+00 29 35 24
3.254214e-02 -1.300572e-01 -2.275789e+00 162 149 99
-1.310365e-01 4.711531e-02 -2.130301e+00 60 65 48
8.688660e-02 5.806596e-02 -2.187461e+00 64 76 53
-6.277855e-02 -3.695046e-02 -2.127923e+00 86 34 17
1.180563e-02 -3.878840e-02 -2.140241e+00 89 40 21
-2.046586e-02 -3.349108e-02 -2.136307e+00 100 87 53
-2.381252e-02 -2.409020e-02 -2.125857e+00 84 35 23
2.339350e-02 -1.351191e-01 -2.289659e+00 159 149 94
-2.443146e-03 -3.554232e-02 -2.137637e+00 102 87 54
-9.543368e-02 6.737231e-02 -2.099385e+00 181 165 105
-7.236345e-01 1.022567e+00 -4.176694e+00 24 21 12
-3.938080e-02 -2.224736e-02 -2.187767e+00 93 40 16
-2.195702e-03 -3.596383e-02 -2.137133e+00 107 87 55
-6.849691e-03 -3.807680e-02 -2.138538e+00 93 44 21
5.606207e-02 1.558015e-01 -2.641358e+00 180 163 105
-1.329377e-01 -1.238315e-01 -2.266536e+00 165 152 96
7.233639e-02 -1.014883e-01 -2.253105e+00 162 148 94
-2.382970e-02 -2.408305e-02 -2.126690e+00 85 34 16
-1.383654e+00 1.038106e+00 -4.015536e+00 34 31 22
-1.362223e+00 1.054282e+00 -4.033709e+00 158 137 100
-1.326328e-01 1.454356e-01 -2.123786e+00 175 161 101
-1.522830e-02 7.738596e-02 -2.124314e+00 31 37 35
1.675459e-02 -3.429696e-02 -2.143530e+00 97 83 52
-5.055827e-02 -2.565579e-02 -2.121297e+00 89 34 17
-4.319703e-02 -3.732555e-02 -2.129524e+00 87 39 19
-7.589301e-03 -3.744220e-02 -2.139503e+00 84 41 19
-1.557976e-02 -2.986063e-02 -2.132925e+00 85 33 19
-1.944698e-02 3.196305e-03 -2.109559e+00 82 31 18
3.503718e-02 -1.894922e-01 -2.290805e+00 157 145 90
2.524537e-01 -8.609128e-02 -1.485584e+00 100 87 42
2.524537e-01 -8.609128e-02 -1.485584e+00 100 87 42
4.981372e-02 -1.696012e-01 -2.269133e+00 168 157 95
-1.277270e-01 -8.163919e-02 -2.259473e+00 15 14 12
-2.142947e-02 -6.725913e-02 -2.204126e+00 105 104 56
4.208788e-02 -9.703075e-02 -2.220154e+00 16 17 14
-8.808025e-02 -1.460086e-01 -2.265587e+00 82 77 53
-9.339306e-02 -1.456784e-01 -2.261778e+00 82 75 51
-7.713452e-02 -8.244531e-02 -2.229281e+00 99 95 52
-7.585721e-02 -5.984924e-02 -2.174860e+00 27 38 24
-1.573248e-01 -4.220392e-02 -2.229112e+00 179 162 105
6.963038e-02 -7.706948e-02 -2.206695e+00 174 162 104
-6.184752e-02 4.410998e-02 -2.111511e+00 26 37 25
-1.194447e-01 -1.322302e-01 -2.280571e+00 19 23 19
-1.486207e-01 -9.753367e-02 -2.261869e+00 52 60 40
-8.287031e-02 -4.084579e-02 -2.153569e+00 103 96 56
-1.485531e-01 -6.228092e-02 -2.253420e+00 29 30 23
1.275213e-02 -7.360097e-02 -2.206707e+00 48 51 38
-8.708453e-02 9.177478e-02 -2.218601e+00 60 65 40
6.053091e-02 5.267493e-02 -2.128351e+00 172 151 105
-1.299122e-01 -1.218464e-01 -2.276816e+00 158 149 94
-1.339537e-01 -1.129897e-01 -2.276406e+00 50 56 38
-1.440606e-01 -5.062450e-02 -2.232354e+00 51 59 41
-7.678543e-02 2.867780e-02 -2.099387e+00 146 140 102
3.286096e-02 1.174596e-01 -2.121384e+00 52 61 55
-1.360354e-01 -1.602852e-01 -2.343488e+00 148 136 85
-1.587298e-01 -1.061346e-01 -2.251186e+00 166 157 100
-6.008210e-02 -3.591270e-02 -2.132273e+00 81 39 17
-6.008210e-02 -3.591270e-02 -2.132273e+00 81 39 17
-1.416898e-01 9.342059e-03 -2.192724e+00 172 157 100
-8.534126e-02 4.449654e-02 -2.129765e+00 54 54 42
-5.826607e-02 1.124710e-01 -2.108143e+00 57 70 50
-1.537027e-01 -1.080718e-01 -2.248879e+00 64 65 39
-3.625254e-02 -3.367701e-02 -2.136350e+00 101 85 52
-4.648113e-02 -3.148149e-02 -2.131540e+00 97 88 49
9.485935e-03 -3.915091e-02 -2.141631e+00 86 39 16
1.681520e-02 -1.566981e-01 -2.267310e+00 81 74 36
9.105642e-02 -1.763440e-02 -2.175595e+00 170 158 98
4.274494e-02 -9.576297e-02 -2.219235e+00 14 17 11
9.644943e-01 -1.268397e-01 -2.300723e+00 81 75 39
-1.228537e-01 5.104873e-02 -2.164513e+00 49 53 39
-1.322793e-01 -7.696462e-03 -2.223337e+00 56 61 48
-7.760525e-02 1.036536e-01 -2.203004e+00 173 162 103
-1.205559e-01 -1.616114e-01 -2.356466e+00 46 43 31
3.053683e-02 -5.637382e-02 -2.190373e+00 33 43 30
8.893417e-02 -8.026772e-02 -2.262463e+00 172 161 100
1.484529e-02 -1.304694e-01 -2.235084e+00 51 58 37
-6.596408e-02 2.579524e-02 -2.091726e+00 107 104 79
-1.319166e-01 5.941773e-02 -2.137568e+00 43 49 32
-8.867868e-02 5.068832e-02 -2.129549e+00 111 115 74
-1.488331e-01 -1.140465e-01 -2.261918e+00 164 150 99
-1.238330e-01 -1.368873e-01 -2.338257e+00 153 142 89
-3.351469e-02 -2.985301e-02 -2.128684e+00 83 41 21
-3.320276e-02 -3.652317e-02 -2.136819e+00 79 42 20
-8.944226e-02 4.356177e-02 -2.129850e+00 109 109 81
-8.944226e-02 4.356177e-02 -2.129850e+00 109 109 81
-1.426935e-01 2.203419e-02 -2.200781e+00 178 161 108
5.392907e-02 2.358248e-02 -2.117414e+00 104 101 67
-1.380213e-01 7.146896e-03 -2.185833e+00 57 57 33
-2.719967e-02 -3.247757e-02 -2.136134e+00 101 75 50
-1.444826e-01 -1.836173e-01 -2.294888e+00 149 137 87
3.253951e-02 -8.550154e-02 -2.252207e+00 17 16 12
-1.370948e+00 1.022533e+00 -4.035334e+00 184 172 114
-1.436312e+00 4.668839e-01 -2.764961e+00 68 56 29
-1.436312e+00 4.668839e-01 -2.764961e+00 68 56 29
-3.445556e-02 -3.597900e-02 -2.133323e+00 86 35 24
8.233042e-02 2.225178e-01 -2.450184e+00 177 160 108
3.649809e-02 -8.771108e-02 -2.255321e+00 14 14 12
2.255325e-02 1.379936e-01 -2.151522e+00 54 66 53
-9.184794e-02 9.125134e-02 -2.167973e+00 170 162 100
-1.380005e-01 -1.366867e-02 -2.151302e+00 57 56 39
-7.964319e-02 9.784444e-02 -2.151631e+00 35 39 30
-1.038075e-01 6.414270e-02 -2.130440e+00 172 160 104
-1.038075e-01 6.414270e-02 -2.130440e+00 172 160 104
-9.762639e-02 7.160117e-02 -2.139881e+00 81 80 51
6.367425e-02 -2.197686e-02 -2.169459e+00 36 35 31
-2.155185e-02 -2.155001e-01 -2.335383e+00 25 27 22
2.157674e-03 -8.209985e-02 -2.250419e+00 98 96 55
-1.669616e-01 -9.656707e-02 -2.231974e+00 182 166 105
-1.580861e-01 -7.824528e-02 -2.211704e+00 182 172 107
-6.259732e-02 -3.751712e-02 -2.128502e+00 88 40 18
-1.576658e-01 -7.026287e-02 -2.144342e+00 177 161 105
-1.255030e-01 -3.463184e-02 -2.159718e+00 32 39 32
-1.477818e-01 -1.158893e-01 -2.231410e+00 48 54 44
-1.254520e-01 -1.245764e-01 -2.269818e+00 49 55 34
1.826501e+00 9.863941e-02 -3.502018e+00 13 13 11
1.200600e+00 3.432797e-01 -3.245269e+00 13 13 11
1.179280e+00 4.236459e-01 -3.347012e+00 11 11 9
1.912819e+00 3.925112e-01 -3.397887e+00 118 108 62
1.909157e+00 4.216211e-01 -3.404964e+00 111 100 53
1.919602e+00 3.717264e-01 -3.377970e+00 111 99 58
1.180161e+00 3.061396e-01 -3.220655e+00 164 145 94
-1.423465e-01 -6.765615e-02 -2.648156e+00 39 41 38
-2.103038e-02 -1.958888e-01 -2.304767e+00 39 37 24
-1.100410e-01 -1.921961e-01 -2.313109e+00 38 38 26
-2.111860e-02 -7.643814e-02 -2.146556e+00 117 109 63
9.128364e-02 -7.043764e-02 -2.226675e+00 179 157 106
3.090059e-02 -6.789817e-02 -2.155138e+00 35 40 28
1.044992e-01 -1.319810e-02 -2.175674e+00 174 158 104
-8.953741e-02 -8.727896e-02 -2.195912e+00 104 101 55
4.707208e-02 -4.092402e-02 -2.164830e+00 111 102 59
-1.326774e-01 -1.582669e-01 -2.299301e+00 40 48 34
-8.196402e-02 -4.525443e-02 -2.118621e+00 107 101 54
-5.357998e-02 3.247187e-02 -2.076297e+00 36 45 33
8.601651e-02 4.848658e-02 -2.157625e+00 68 75 64
7.668216e-02 -5.807905e-02 -2.207518e+00 50 54 40
5.095749e-03 -1.747511e-01 -2.350534e+00 44 47 33
8.610607e-02 -1.824286e-02 -2.184158e+00 51 58 35
6.812469e-02 1.464169e-02 -2.083160e+00 143 137 100
1.670896e-02 -1.392003e-01 -2.305810e+00 46 45 18
1.801971e-02 -1.265467e-01 -2.302561e+00 50 57 43
-1.419724e-01 1.192422e-03 -2.152560e+00 164 149 99
-5.405509e-02 1.810010e-02 -2.047274e+00 55 64 51
-1.006911e-01 -2.818655e-02 -2.127170e+00 79 80 49
-2.313674e-03 -1.810227e-01 -2.394803e+00 127 118 83
-1.312112e-01 -1.287755e-01 -2.275894e+00 139 127 77
7.696903e-02 -1.702123e-01 -5.377557e-01 0 255 0
7.431854e-02 -1.704257e-01 -5.876849e-01 255 255 0
6.307996e-01 -2.956836e-01 -5.627105e-01 255 0 0
6.145251e-01 -2.942682e-01 -6.099666e-01 255 255 0
1.594788e-01 -3.491103e-01 -7.172522e-01 0 255 0
1.521817e-01 -3.464481e-01 -7.666452e-01 255 255 0
9.478294e-01 -5.059080e-01 -7.796059e-01 255 0 0
9.217973e-01 -4.942991e-01 -8.206859e-01 255 255 0
2.121540e-01 -5.734387e-01 -5.739453e-01 0 255 0
2.049192e-01 -5.640683e-01 -6.225237e-01 255 255 0
-6.388561e-01 -1.967111e-01 -7.426470e-01 255 0 0
-6.235492e-01 -1.995043e-01 -7.901643e-01 255 255 0
-5.251402e-01 -3.327820e-01 -6.348738e-01 0 255 0
-5.123776e-01 -3.291915e-01 -6.830841e-01 255 255 0
-6.930486e-01 -3.259315e-01 -6.922226e-01 255 0 0
-6.737733e-01 -3.226500e-01 -7.382410e-01 255 255 0
1.234559e+00 -2.150946e-01 -7.958305e-01 0 255 0
1.204070e+00 -2.161651e-01 -8.354446e-01 255 255 0
-7.769113e-01 -2.353205e-01 -3.538770e-01 255 0 0
-7.609743e-01 -2.353045e-01 -4.012691e-01 255 255 0
4.274468e-01 -4.333241e-01 -1.758358e-01 0 255 0
4.151256e-01 -4.307388e-01 -2.242249e-01 255 255 0
3.872883e-01 -4.758434e-01 -4.170410e-01 255 0 0
3.776638e-01 -4.704152e-01 -4.658047e-01 255 255 0
5.457532e-01 3.573300e-01 -3.948730e+00 0 255 0
5.617896e-01 3.757417e-01 -3.992363e+00 255 255 0
