ply
format ascii 1.0
element face 0
property list uchar int vertex_indices
element vertex 144
property float x
property float y
property float z
property uchar diffuse_red
property uchar diffuse_green
property uchar diffuse_blue
end_header
-4.348974e-02 -6.801197e-02 -2.290754e+00 105 100 55
-4.348974e-02 -6.801197e-02 -2.290754e+00 105 100 55
-2.236154e-02 1.108115e-01 -2.157231e+00 32 41 33
-2.236154e-02 1.108115e-01 -2.157231e+00 32 41 33
-2.705374e-02 -7.156395e-02 -2.206867e+00 113 99 59
7.029817e-02 -1.000237e-01 -2.296584e+00 19 19 17
-1.537160e-01 -1.050696e-01 -2.250724e+00 18 17 14
-1.357099e-01 3.568752e-02 -2.140932e+00 31 36 30
3.309840e-02 -6.070591e-02 -2.222289e+00 40 47 36
-1.002872e-01 -3.581003e-02 -2.164246e+00 106 98 55
-9.960650e-02 -3.526672e-02 -2.161112e+00 106 98 55
2.920282e-02 -9.430459e-02 -2.258739e+00 100 90 49
-1.007137e-01 -9.425782e-02 -2.238636e+00 108 99 55
-1.429128e-01 -7.140322e-02 -2.228122e+00 85 78 54
-6.747791e-02 -2.635350e-02 -2.145038e+00 112 77 44
-6.762238e-02 -2.625034e-02 -2.144070e+00 112 77 44
-1.253996e-01 -9.766953e-02 -2.237789e+00 16 17 12
2.211566e-02 -2.770181e-02 -2.166987e+00 97 92 49
1.678620e-02 -2.091636e-02 -2.160317e+00 83 37 21
1.678620e-02 -2.091636e-02 -2.160317e+00 83 37 21
-1.358055e-02 2.761302e-03 -2.139455e+00 75 35 10
-1.358055e-02 2.761302e-03 -2.139455e+00 75 35 10
-5.414431e-02 2.597418e-03 -2.130945e+00 82 32 24
-5.414431e-02 2.597418e-03 -2.130945e+00 82 32 24
-6.806428e-02 2.271325e-03 -2.128128e+00 84 34 15
-4.274435e-02 7.434446e-03 -2.129929e+00 96 89 53
-7.133997e-02 1.613498e-02 -2.118172e+00 83 34 20
-2.831713e-02 -3.339682e-02 -2.158982e+00 84 36 14
-2.842188e-02 -3.343431e-02 -2.158677e+00 84 36 14
-6.031671e-02 -3.366993e-02 -2.152732e+00 88 35 20
-2.219190e-02 -2.872138e-02 -2.158511e+00 108 94 53
-2.204901e-02 -2.870523e-02 -2.157565e+00 108 94 53
-4.412238e-02 -2.896188e-02 -2.152902e+00 108 95 58
-6.520361e-02 -2.225558e-02 -2.143554e+00 101 88 51
-5.875755e-02 -2.095122e-02 -2.144289e+00 84 35 21
-7.107105e-02 -1.869860e-02 -2.140300e+00 82 30 16
-3.646056e-02 1.753067e-03 -2.135680e+00 79 31 10
-3.646056e-02 1.753067e-03 -2.135680e+00 79 31 10
-6.077982e-02 2.960387e-03 -2.128505e+00 100 86 67
-2.930327e-02 1.421352e-02 -2.129821e+00 100 80 47
-5.138135e-02 1.434077e-02 -2.125398e+00 92 89 51
-1.177956e-02 1.759517e-02 -2.131126e+00 76 34 19
-3.475432e-02 1.730583e-02 -2.126388e+00 83 30 19
-5.784586e-02 1.571420e-02 -2.121785e+00 80 32 18
-5.784586e-02 1.571420e-02 -2.121785e+00 80 32 18
-6.793903e-03 -3.172770e-02 -2.162778e+00 82 32 11
-6.684332e-02 -3.168141e-02 -2.148984e+00 107 96 57
-6.684332e-02 -3.168141e-02 -2.148984e+00 107 96 57
2.852071e-02 -2.448943e-02 -2.165383e+00 78 31 14
-4.491794e-02 1.778701e-02 -2.123337e+00 81 33 16
5.894015e-01 -3.772223e-01 -2.249787e+00 143 124 49
2.623972e-02 -3.346702e-02 -2.170105e+00 84 46 16
3.025489e-02 -3.117527e-02 -2.170480e+00 103 78 53
3.366647e-02 -2.363984e-02 -2.165810e+00 105 77 53
-1.138402e-02 -2.808087e-02 -2.159926e+00 116 77 58
1.917033e-02 -2.522576e-01 -2.320546e+00 26 27 19
1.917033e-02 -2.522576e-01 -2.320546e+00 26 27 19
9.101343e-02 -2.535542e-02 -2.247475e+00 32 41 30
9.697678e-02 4.345983e-02 -2.201383e+00 33 39 35
2.644524e-02 1.318133e-02 -2.140406e+00 81 25 18
2.691991e-02 -1.956359e-01 -2.327828e+00 44 46 39
5.461468e-02 -1.546556e-01 -2.305992e+00 166 148 99
-1.523820e-01 -1.531977e-01 -2.283751e+00 168 156 98
2.902042e-02 -9.400052e-02 -2.263235e+00 100 90 49
1.092340e-01 -6.956336e-02 -2.274678e+00 172 157 101
5.648576e-02 -3.384062e-02 -2.198329e+00 102 92 59
1.142511e-01 6.107686e-03 -2.225993e+00 180 166 106
-6.978150e-02 1.674344e-01 -2.129063e+00 57 74 58
-1.879043e-01 -1.145922e-01 -2.261840e+00 173 161 104
1.117322e-01 6.774545e-03 -2.225831e+00 179 165 104
-7.082457e-02 1.691403e-01 -2.134512e+00 56 72 58
6.979773e-02 -6.859079e-02 -2.273029e+00 82 76 48
-9.602986e-02 4.336903e-02 -2.112023e+00 150 140 99
9.680245e-02 -1.091222e-01 -2.303027e+00 164 148 94
1.023329e-01 -5.165991e-03 -2.234274e+00 45 50 44
8.062079e-02 8.345472e-02 -2.209910e+00 59 71 50
-1.548319e-01 7.619923e-02 -2.148097e+00 58 64 49
3.970176e-02 -1.449086e-01 -2.310205e+00 52 59 42
9.240945e-02 -7.836765e-02 -2.274988e+00 42 46 28
8.287430e-02 1.418181e-02 -2.210739e+00 38 39 31
-3.529905e-02 9.832147e-03 -2.130935e+00 80 33 20
3.543503e-02 -3.063921e-02 -2.170931e+00 86 34 14
-5.614068e-02 -2.806502e-02 -2.148575e+00 105 91 57
-3.781608e-02 -2.672066e-02 -2.155008e+00 82 30 17
-2.695095e-02 -1.711409e-02 -2.148498e+00 85 34 16
-2.335731e-02 1.628452e-02 -2.131286e+00 79 34 17
-4.495830e-02 1.794368e-02 -2.123298e+00 81 33 16
5.895343e-01 -3.767645e-01 -2.251955e+00 143 124 49
3.735679e-02 -2.175780e-02 -2.165559e+00 83 47 22
-2.823500e-02 -7.021434e-02 -2.212976e+00 111 102 65
2.707285e-02 1.281220e-02 -2.142190e+00 75 27 11
2.707285e-02 1.281220e-02 -2.142190e+00 75 27 11
-1.812259e-01 -7.294264e-02 -2.217146e+00 179 166 111
7.363498e-02 -1.250196e-01 -2.321674e+00 47 56 40
-6.151563e-02 -5.958056e-02 -2.197943e+00 111 104 65
4.223938e-02 -1.397714e-01 -2.346539e+00 158 148 97
-7.753156e-02 -7.527005e-02 -2.216082e+00 39 47 38
-1.652518e-01 -8.200482e-02 -2.225178e+00 42 47 34
-9.609504e-02 4.384092e-02 -2.114604e+00 154 143 99
-6.720866e-02 -5.458703e-02 -2.192880e+00 108 102 67
-7.317435e-02 -3.355407e-02 -2.151134e+00 83 38 17
-4.429298e-02 -2.870409e-02 -2.153636e+00 106 89 51
-2.378243e-02 1.365016e-02 -2.133038e+00 77 33 20
-7.199549e-02 1.652440e-02 -2.120437e+00 78 32 17
4.688212e-03 -3.100615e-02 -2.164521e+00 77 34 15
-1.728693e-02 -3.257445e-02 -2.160411e+00 84 36 14
-2.934020e-02 1.421034e-02 -2.129868e+00 96 79 50
3.767397e-02 -2.161916e-02 -2.165549e+00 77 48 18
-8.661062e-02 -6.515006e-02 -2.183688e+00 35 39 36
7.493395e-02 -1.255284e-01 -2.313224e+00 46 54 39
-7.283048e-01 8.841042e-01 -3.796383e+00 168 155 103
-1.517025e-01 -1.461457e-01 -2.301774e+00 175 159 104
1.722506e-02 -7.484063e-02 -2.233170e+00 37 45 32
-1.646290e-01 -5.250268e-02 -2.222733e+00 47 50 43
3.232953e-02 -5.172896e-02 -2.215434e+00 29 31 28
1.176475e+00 1.515027e+00 -4.941638e+00 75 58 36
-1.477361e-01 -2.207385e-01 -2.350912e+00 131 122 63
-1.741526e-01 1.598917e-02 -2.197417e+00 174 163 104
-1.559195e-01 7.746212e-02 -2.154206e+00 66 75 57
-1.419086e-01 -1.561501e-01 -2.324571e+00 29 35 24
5.024579e-02 -1.456252e-01 -2.305000e+00 162 149 99
-1.562661e-01 6.423014e-02 -2.153658e+00 60 65 48
1.063089e-01 7.761050e-02 -2.196504e+00 64 76 53
-7.292508e-02 -3.386782e-02 -2.149886e+00 86 34 17
1.652715e-02 -3.386065e-02 -2.163671e+00 89 40 21
-2.246745e-02 -2.804319e-02 -2.161329e+00 100 87 53
-2.717311e-02 -1.681428e-02 -2.148988e+00 84 35 23
4.021209e-02 -1.521072e-01 -2.319922e+00 159 149 94
-8.175391e-04 -2.999877e-02 -2.162430e+00 102 87 54
-1.163896e-01 8.974129e-02 -2.116306e+00 181 165 105
-6.795903e-01 9.636057e-01 -3.960836e+00 24 21 12
-4.962080e-02 -6.491593e-03 -2.233548e+00 93 40 16
-4.062793e-04 -3.048463e-02 -2.161755e+00 107 87 55
-5.817050e-03 -3.323971e-02 -2.163109e+00 93 44 21
3.362504e-02 -1.355101e-01 -2.541954e-01 0 255 0
3.268094e-02 -1.371555e-01 -3.041594e-01 255 255 0
7.539635e-01 -3.089551e-01 -2.673256e-01 255 0 0
7.379961e-01 -3.082746e-01 -3.147026e-01 255 255 0
1.341839e-01 -3.968122e-01 -4.563457e-01 0 255 0
1.287368e-01 -3.944182e-01 -5.059904e-01 255 255 0
1.208228e+00 -5.682943e-01 -6.138786e-01 255 0 0
1.180078e+00 -5.570635e-01 -6.536460e-01 255 255 0
2.281581e-01 -7.003544e-01 -2.933854e-01 0 255 0
2.218555e-01 -6.903291e-01 -3.419629e-01 255 255 0
