ply
format ascii 1.0
element face 0
property list uchar int vertex_indices
element vertex 225
property float x
property float y
property float z
property uchar diffuse_red
property uchar diffuse_green
property uchar diffuse_blue
end_header
-4.669200e-02 -6.329944e-02 -2.247297e+00 105 100 55
-4.669200e-02 -6.329944e-02 -2.247297e+00 105 100 55
-2.488762e-02 7.561233e-02 -2.129678e+00 32 41 33
-2.488762e-02 7.561233e-02 -2.129678e+00 32 41 33
-3.222008e-02 -6.909698e-02 -2.173490e+00 113 99 59
4.406033e-02 -9.145380e-02 -2.250099e+00 19 19 17
-1.359252e-01 -9.216185e-02 -2.216084e+00 18 17 14
-1.174484e-01 1.751715e-02 -2.120315e+00 31 36 30
1.595223e-02 -6.117494e-02 -2.185408e+00 40 47 36
-8.988802e-02 -4.007243e-02 -2.138576e+00 106 98 55
-8.937259e-02 -3.983023e-02 -2.136049e+00 106 98 55
1.162823e-02 -8.716540e-02 -2.217933e+00 100 90 49
-8.979922e-02 -8.645450e-02 -2.191597e+00 108 99 55
-1.257956e-01 -6.618123e-02 -2.194733e+00 85 78 54
-6.263609e-02 -3.420708e-02 -2.118964e+00 112 77 44
-6.330457e-02 -3.379598e-02 -2.120417e+00 112 77 44
-1.102932e-01 -8.764454e-02 -2.197208e+00 16 17 12
8.252923e-03 -3.619177e-02 -2.138271e+00 97 92 49
3.846993e-03 -3.049083e-02 -2.133746e+00 83 37 21
4.431737e-03 -3.081550e-02 -2.131750e+00 83 37 21
-1.971889e-02 -1.190438e-02 -2.116114e+00 75 35 10
-1.971889e-02 -1.190438e-02 -2.116114e+00 75 35 10
-5.162122e-02 -1.144945e-02 -2.108309e+00 82 32 24
-5.162990e-02 -1.128608e-02 -2.108351e+00 82 32 24
-6.276500e-02 -1.131175e-02 -2.106341e+00 84 34 15
-4.254120e-02 -7.829605e-03 -2.107214e+00 96 89 53
-6.499861e-02 -4.076101e-04 -2.097879e+00 83 34 20
-3.186645e-02 -4.002686e-02 -2.131643e+00 84 36 14
-3.194769e-02 -3.995372e-02 -2.131649e+00 84 36 14
-5.706324e-02 -3.971304e-02 -2.126173e+00 88 35 20
-2.683343e-02 -3.637678e-02 -2.130805e+00 108 94 53
-2.687493e-02 -3.636019e-02 -2.130632e+00 108 94 53
-4.430148e-02 -3.628619e-02 -2.126345e+00 108 95 58
-6.079486e-02 -3.053312e-02 -2.118786e+00 101 88 51
-5.595546e-02 -2.960757e-02 -2.120071e+00 84 35 21
-6.545355e-02 -2.780864e-02 -2.116247e+00 82 30 16
-3.761406e-02 -1.231104e-02 -2.112185e+00 79 31 10
-3.757826e-02 -1.230476e-02 -2.112079e+00 79 31 10
-5.710493e-02 -1.103991e-02 -2.106618e+00 100 86 67
-3.168660e-02 -2.635525e-03 -2.107269e+00 100 80 47
-4.931473e-02 -2.242203e-03 -2.103559e+00 92 89 51
-1.795491e-02 -3.726488e-05 -2.108869e+00 76 34 19
-3.579107e-02 -2.347335e-04 -2.103572e+00 83 30 19
-5.421546e-02 -1.169163e-03 -2.100527e+00 80 32 18
-5.415489e-02 -1.014796e-03 -2.100273e+00 80 32 18
-1.474162e-02 -3.895258e-02 -2.134710e+00 82 32 11
-6.236542e-02 -3.792885e-02 -2.123593e+00 107 96 57
-6.236542e-02 -3.792885e-02 -2.123593e+00 107 96 57
1.325744e-02 -3.368670e-02 -2.137351e+00 78 31 14
-4.411774e-02 4.467747e-04 -2.102098e+00 81 33 16
4.534590e-01 -3.236699e-01 -2.207144e+00 143 124 49
1.110050e-02 -4.055007e-02 -2.141939e+00 84 46 16
1.491036e-02 -3.901300e-02 -2.140232e+00 103 78 53
1.779757e-02 -3.321740e-02 -2.136194e+00 105 77 53
-1.832284e-02 -3.602744e-02 -2.132315e+00 116 77 58
4.015919e-04 -2.119290e-01 -2.274702e+00 26 27 19
4.015919e-04 -2.119290e-01 -2.274702e+00 26 27 19
6.236935e-02 -3.254537e-02 -2.209813e+00 32 41 30
6.885477e-02 2.018780e-02 -2.163500e+00 33 39 35
1.289308e-02 -4.255020e-03 -2.114754e+00 81 25 18
7.464429e-03 -1.665525e-01 -2.278646e+00 44 46 39
3.048224e-02 -1.342773e-01 -2.261784e+00 166 148 99
-1.358258e-01 -1.300352e-01 -2.242835e+00 168 156 98
1.173540e-02 -8.762091e-02 -2.219088e+00 100 90 49
7.600941e-02 -6.745828e-02 -2.234323e+00 172 157 101
3.535435e-02 -4.056384e-02 -2.165392e+00 102 92 59
8.181910e-02 -9.228003e-03 -2.184767e+00 180 166 106
-6.241059e-02 1.217510e-01 -2.107773e+00 57 74 58
-1.635223e-01 -9.935657e-02 -2.223497e+00 173 161 104
7.972045e-02 -7.716795e-03 -2.190848e+00 179 165 104
-6.338518e-02 1.234767e-01 -2.112913e+00 56 72 58
4.457945e-02 -6.696052e-02 -2.229087e+00 82 76 48
-8.456876e-02 2.168918e-02 -2.093441e+00 150 140 99
6.536716e-02 -9.997739e-02 -2.241749e+00 164 148 94
7.201916e-02 -1.762864e-02 -2.193018e+00 45 50 44
5.613549e-02 5.327164e-02 -2.172767e+00 59 71 50
-1.327078e-01 5.092414e-02 -2.127231e+00 58 64 49
1.924808e-02 -1.267658e-01 -2.257015e+00 52 59 42
6.225989e-02 -7.485712e-02 -2.234617e+00 42 46 28
5.706212e-02 -2.675849e-03 -2.172034e+00 38 39 31
-3.648734e-02 -5.889072e-03 -2.108090e+00 80 33 20
1.847860e-02 -3.811841e-02 -2.142743e+00 86 34 14
-5.389679e-02 -3.522331e-02 -2.123509e+00 105 91 57
-3.931176e-02 -3.468076e-02 -2.127270e+00 82 30 17
-3.051035e-02 -2.694026e-02 -2.123380e+00 85 34 16
-2.673324e-02 -1.146464e-03 -2.107358e+00 79 34 17
-4.411585e-02 6.599637e-04 -2.102078e+00 81 33 16
4.546577e-01 -3.222764e-01 -2.213548e+00 143 124 49
2.088560e-02 -3.186921e-02 -2.134908e+00 83 47 22
-3.327280e-02 -6.787223e-02 -2.178867e+00 111 102 65
1.363720e-02 -4.610714e-03 -2.115397e+00 75 27 11
1.363720e-02 -4.610714e-03 -2.115397e+00 75 27 11
-1.576745e-01 -6.640471e-02 -2.188969e+00 179 166 111
4.618187e-02 -1.114833e-01 -2.271492e+00 47 56 40
-5.947734e-02 -5.909980e-02 -2.166115e+00 111 104 65
2.037124e-02 -1.220233e-01 -2.294034e+00 158 148 97
-7.333178e-02 -7.077575e-02 -2.183575e+00 39 47 38
-1.449688e-01 -7.386968e-02 -2.195303e+00 42 47 34
-8.420296e-02 2.188856e-02 -2.094172e+00 154 143 99
-6.434255e-02 -5.498531e-02 -2.163120e+00 108 102 67
-6.742384e-02 -3.946145e-02 -2.125000e+00 83 38 17
-4.431370e-02 -3.609226e-02 -2.126707e+00 106 89 51
-2.703969e-02 -3.253903e-03 -2.108710e+00 77 33 20
-6.543998e-02 -2.848735e-04 -2.099173e+00 78 32 17
-1.123694e-02 -3.428656e-02 -2.159594e+00 77 34 15
-2.309474e-02 -3.938736e-02 -2.132921e+00 84 36 14
-3.170163e-02 -2.642158e-03 -2.107258e+00 96 79 50
2.135498e-02 -3.176246e-02 -2.135191e+00 77 48 18
-7.863202e-02 -6.484144e-02 -2.148887e+00 35 39 36
4.656290e-02 -1.097223e-01 -2.274011e+00 46 54 39
-7.173479e-01 8.774538e-01 -3.809605e+00 168 155 103
-1.345822e-01 -1.257417e-01 -2.252730e+00 175 159 104
2.782035e-03 -7.204086e-02 -2.195265e+00 37 45 32
-1.417276e-01 -5.268368e-02 -2.182603e+00 47 50 43
1.550145e-02 -5.425156e-02 -2.179430e+00 29 31 28
1.381089e+00 2.185336e+00 -6.537613e+00 75 58 36
-1.332361e-01 -1.848988e-01 -2.294716e+00 131 122 63
-1.487265e-01 2.688722e-03 -2.164396e+00 174 163 104
-1.329280e-01 5.135174e-02 -2.129730e+00 66 75 57
-1.274695e-01 -1.333221e-01 -2.273234e+00 29 35 24
2.673954e-02 -1.263331e-01 -2.264046e+00 162 149 99
-1.329987e-01 4.014962e-02 -2.127536e+00 60 65 48
7.582396e-02 5.190004e-02 -2.175981e+00 64 76 53
-6.742226e-02 -3.949160e-02 -2.125164e+00 86 34 17
3.994119e-03 -4.099695e-02 -2.134831e+00 89 40 21
-2.689074e-02 -3.612718e-02 -2.131803e+00 100 87 53
-3.044493e-02 -2.689781e-02 -2.123183e+00 84 35 23
1.829816e-02 -1.310417e-01 -2.277466e+00 159 149 94
-9.803897e-03 -3.759090e-02 -2.134070e+00 102 87 54
-9.998500e-02 5.980864e-02 -2.098037e+00 181 165 105
-6.168564e-01 8.975205e-01 -3.861628e+00 24 21 12
-4.975201e-02 -1.588670e-02 -2.197307e+00 93 40 16
-9.641942e-03 -3.789310e-02 -2.133744e+00 107 87 55
-1.403033e-02 -3.994490e-02 -2.135051e+00 93 44 21
5.480472e-02 1.518426e-01 -2.630589e+00 180 163 105
-1.310171e-01 -1.229333e-01 -2.254957e+00 165 152 96
6.411299e-02 -9.901088e-02 -2.242474e+00 162 148 94
-3.046306e-02 -2.695635e-02 -2.123566e+00 85 34 16
-1.336653e+00 1.037296e+00 -4.015173e+00 34 31 22
-1.340521e+00 1.079042e+00 -4.083794e+00 158 137 100
-1.355299e-01 1.328469e-01 -2.121648e+00 175 161 101
-2.434368e-02 6.922468e-02 -2.118945e+00 31 37 35
8.603903e-03 -3.612820e-02 -2.139481e+00 97 83 52
-5.600405e-02 -2.880716e-02 -2.118625e+00 89 34 17
-4.885370e-02 -3.958360e-02 -2.127520e+00 87 39 19
-1.460079e-02 -3.939947e-02 -2.135634e+00 84 41 19
-2.243478e-02 -3.230118e-02 -2.129681e+00 85 33 19
-2.681101e-02 -9.733944e-04 -2.107889e+00 82 31 18
2.985910e-02 -1.821345e-01 -2.279232e+00 157 145 90
2.227020e-01 -8.959435e-02 -1.513662e+00 100 87 42
2.227020e-01 -8.959435e-02 -1.513662e+00 100 87 42
4.175542e-02 -1.633743e-01 -2.254860e+00 168 157 95
-1.345775e-01 -8.603305e-02 -2.222522e+00 15 14 12
-3.416985e-02 -6.970427e-02 -2.176304e+00 105 104 56
4.536888e-02 -9.227579e-02 -2.237516e+00 16 17 14
-9.314294e-02 -1.437964e-01 -2.241332e+00 82 77 53
-9.809191e-02 -1.436546e-01 -2.237577e+00 82 75 51
-8.860023e-02 -8.571450e-02 -2.192436e+00 99 95 52
-8.194169e-02 -6.135450e-02 -2.160624e+00 27 38 24
-1.592933e-01 -4.729304e-02 -2.208985e+00 179 162 105
6.756174e-02 -7.345156e-02 -2.215650e+00 174 162 104
-6.822943e-02 3.663917e-02 -2.107535e+00 26 37 25
-1.224090e-01 -1.311414e-01 -2.255822e+00 19 23 19
-1.531318e-01 -1.007592e-01 -2.228564e+00 52 60 40
-9.233983e-02 -4.430725e-02 -2.135704e+00 103 96 56
-1.591729e-01 -6.983909e-02 -2.202734e+00 29 30 23
4.024352e-03 -7.372744e-02 -2.194289e+00 48 51 38
-1.051235e-01 7.084309e-02 -2.170757e+00 60 65 40
5.100276e-02 4.803542e-02 -2.133440e+00 172 151 105
-1.353395e-01 -1.231719e-01 -2.241661e+00 158 149 94
-1.469866e-01 -1.163610e-01 -2.219324e+00 50 56 38
-1.493924e-01 -5.643422e-02 -2.203752e+00 51 59 41
-8.345852e-02 2.120106e-02 -2.093706e+00 146 140 102
2.425153e-02 1.093881e-01 -2.123144e+00 52 61 55
-1.378818e-01 -1.577841e-01 -2.310473e+00 148 136 85
-1.611457e-01 -1.077638e-01 -2.224300e+00 166 157 100
-6.647381e-02 -3.936772e-02 -2.124780e+00 81 39 17
-6.647381e-02 -3.936772e-02 -2.124780e+00 81 39 17
-1.451496e-01 1.393391e-03 -2.176256e+00 172 157 100
-9.144672e-02 3.603932e-02 -2.121790e+00 54 54 42
-6.618959e-02 1.010978e-01 -2.102813e+00 57 70 50
-1.563058e-01 -1.094734e-01 -2.222609e+00 64 65 39
-4.299229e-02 -3.655618e-02 -2.130530e+00 101 85 52
-5.315742e-02 -3.479694e-02 -2.125175e+00 97 88 49
2.038424e-03 -4.057157e-02 -2.138696e+00 86 39 16
1.060680e-02 -1.518174e-01 -2.254041e+00 81 74 36
7.848469e-02 -1.918512e-02 -2.167856e+00 170 158 98
3.139996e-02 -9.421563e-02 -2.203530e+00 14 17 11
1.048744e+00 -9.903695e-02 -2.412898e+00 81 75 39
-1.267229e-01 4.102652e-02 -2.153821e+00 49 53 39
-1.342201e-01 -1.320477e-02 -2.209601e+00 56 61 48
-8.793472e-02 8.942772e-02 -2.180945e+00 173 162 103
-1.260103e-01 -1.591438e-01 -2.315708e+00 46 43 31
1.344189e-02 -5.920282e-02 -2.165532e+00 33 43 30
6.627529e-02 -8.144304e-02 -2.226787e+00 172 161 100
2.546324e-02 -1.245636e-01 -2.260384e+00 51 58 37
-7.020386e-02 2.001009e-02 -2.093192e+00 107 104 79
-1.354330e-01 4.926654e-02 -2.129590e+00 43 49 32
-9.399685e-02 4.202956e-02 -2.123340e+00 111 115 74
-1.507570e-01 -1.146943e-01 -2.237711e+00 164 150 99
-1.288762e-01 -1.361214e-01 -2.300876e+00 153 142 89
-3.900672e-02 -3.234760e-02 -2.126341e+00 83 41 21
-3.879776e-02 -3.872231e-02 -2.133433e+00 79 42 20
-9.460030e-02 3.531698e-02 -2.123692e+00 109 109 81
-9.460030e-02 3.531698e-02 -2.123692e+00 109 109 81
-1.447198e-01 1.445254e-02 -2.187600e+00 178 161 108
4.478492e-02 1.995379e-02 -2.117507e+00 104 101 67
-1.408572e-01 5.754363e-05 -2.172463e+00 57 57 33
-3.530674e-02 -3.583275e-02 -2.128360e+00 101 75 50
3.662936e-02 -1.775452e-01 -6.079096e-01 0 255 0
3.497101e-02 -1.773852e-01 -6.578818e-01 255 255 0
5.614651e-01 -3.065411e-01 -6.210617e-01 255 0 0
5.462707e-01 -3.044655e-01 -6.686519e-01 255 255 0
1.217328e-01 -3.530440e-01 -7.799278e-01 0 255 0
1.153248e-01 -3.498019e-01 -8.294094e-01 255 255 0
9.028842e-01 -4.956656e-01 -8.579995e-01 255 0 0
8.765091e-01 -4.836613e-01 -8.987456e-01 255 255 0
1.715244e-01 -5.694620e-01 -6.453916e-01 0 255 0
1.651041e-01 -5.594868e-01 -6.939640e-01 255 255 0
-6.213083e-01 -1.967729e-01 -8.223490e-01 255 0 0
-6.054838e-01 -1.994070e-01 -8.697056e-01 255 255 0
-5.405159e-01 -3.393803e-01 -7.200342e-01 0 255 0
-5.265990e-01 -3.351733e-01 -7.678737e-01 255 255 0
-6.827594e-01 -3.315437e-01 -7.828461e-01 255 0 0
-6.627130e-01 -3.276243e-01 -8.284836e-01 255 255 0
