ply
format ascii 1.0
element face 0
property list uchar int vertex_indices
element vertex 59
property float x
property float y
property float z
property uchar diffuse_red
property uchar diffuse_green
property uchar diffuse_blue
end_header
-4.767141e-02 -7.499411e-02 -2.289123e+00 105 100 55
-4.767141e-02 -7.499411e-02 -2.289123e+00 105 100 55
-3.396925e-02 1.368937e-01 -2.181071e+00 32 41 33
-3.396925e-02 1.368937e-01 -2.181071e+00 32 41 33
-3.274570e-02 -7.409247e-02 -2.219693e+00 113 99 59
8.134401e-02 -1.099096e-01 -2.298354e+00 19 19 17
-1.715917e-01 -1.164683e-01 -2.241279e+00 18 17 14
-1.610750e-01 4.976025e-02 -2.149590e+00 31 36 30
3.347820e-02 -6.333304e-02 -2.240171e+00 40 47 36
-1.177089e-01 -3.118551e-02 -2.171215e+00 106 98 55
-1.177089e-01 -3.118551e-02 -2.171215e+00 106 98 55
3.420258e-02 -1.002857e-01 -2.268626e+00 100 90 49
-1.136969e-01 -1.027066e-01 -2.236247e+00 108 99 55
-1.621792e-01 -7.777382e-02 -2.226149e+00 85 78 54
-8.334982e-02 -1.935030e-02 -2.161739e+00 112 77 44
-8.334982e-02 -1.935030e-02 -2.161739e+00 112 77 44
-1.397560e-01 -1.063804e-01 -2.232064e+00 16 17 12
1.967261e-02 -2.030052e-02 -2.191857e+00 97 92 49
1.299922e-02 -1.239580e-02 -2.186341e+00 83 37 21
1.299922e-02 -1.239580e-02 -2.186341e+00 83 37 21
-2.303268e-02 1.535769e-02 -2.165214e+00 75 35 10
-2.303268e-02 1.535769e-02 -2.165214e+00 75 35 10
-6.943790e-02 1.467093e-02 -2.152787e+00 82 32 24
-6.943790e-02 1.467093e-02 -2.152787e+00 82 32 24
-8.538698e-02 1.397105e-02 -2.149395e+00 84 34 15
-5.657377e-02 2.062135e-02 -2.153210e+00 96 89 53
-8.970825e-02 3.013085e-02 -2.140403e+00 83 34 20
-3.792148e-02 -2.755786e-02 -2.178970e+00 84 36 14
-3.792148e-02 -2.755786e-02 -2.178970e+00 84 36 14
-7.453131e-02 -2.807493e-02 -2.169825e+00 88 35 20
-3.095932e-02 -2.208023e-02 -2.179112e+00 108 94 53
-3.095932e-02 -2.208023e-02 -2.179112e+00 108 94 53
-5.611275e-02 -2.261355e-02 -2.172124e+00 108 95 58
-8.071895e-02 -1.487557e-02 -2.162144e+00 101 88 51
-7.355819e-02 -1.305028e-02 -2.163177e+00 84 35 21
-8.763970e-02 -1.098397e-02 -2.159040e+00 82 30 16
-4.899605e-02 1.398103e-02 -2.158772e+00 79 31 10
-4.899605e-02 1.398103e-02 -2.158772e+00 79 31 10
-7.700207e-02 1.518675e-02 -2.149509e+00 100 86 67
-4.140383e-02 2.863323e-02 -2.155246e+00 100 80 47
-6.673796e-02 2.863197e-02 -2.148234e+00 92 89 51
-2.160561e-02 3.270407e-02 -2.158662e+00 76 34 19
-4.797807e-02 3.209876e-02 -2.152079e+00 83 30 19
-7.407691e-02 3.037611e-02 -2.144449e+00 80 32 18
-7.407691e-02 3.037611e-02 -2.144449e+00 80 32 18
-1.329531e-02 -2.556228e-02 -2.185313e+00 82 32 11
-8.226518e-02 -2.579049e-02 -2.165721e+00 107 96 57
-8.226518e-02 -2.579049e-02 -2.165721e+00 107 96 57
2.665998e-02 -1.640215e-02 -2.191093e+00 78 31 14
-5.973942e-02 3.272496e-02 -2.147922e+00 81 33 16
6.834260e-01 -4.132434e-01 -2.254977e+00 143 124 49
2.432581e-02 -2.711500e-02 -2.196628e+00 84 46 16
2.895050e-02 -2.451756e-02 -2.196951e+00 103 78 53
3.260833e-02 -1.562569e-02 -2.192905e+00 105 77 53
-1.874884e-02 -2.129647e-02 -2.182498e+00 116 77 58
-6.638773e-02 6.843641e-04 -1.497394e-02 0 255 0
-6.496904e-02 -4.265743e-03 -6.470807e-02 255 255 0
1.042383e+00 -3.004682e-01 -7.670753e-02 255 0 0
1.022596e+00 -3.007167e-01 -1.226251e-01 255 255 0
