ply
format ascii 1.0
element face 0
property list uchar int vertex_indices
element vertex 939
property float x
property float y
property float z
property uchar diffuse_red
property uchar diffuse_green
property uchar diffuse_blue
end_header
-1.277004e+00 3.923156e-01 9.461276e+00 67 79 104
-2.249887e+00 9.422316e-01 9.449170e+00 68 63 54
-9.753869e+00 5.718964e+00 -4.830015e+00 102 94 87
-2.374845e+00 -7.076999e-02 1.139871e+01 33 29 23
-2.375128e+00 -6.476254e-02 1.141218e+01 33 29 23
-2.066527e+00 -4.044503e-02 1.123639e+01 79 72 61
-2.306570e+00 -2.250986e-02 1.122842e+01 42 33 41
-2.086859e+00 7.518739e-02 1.081683e+01 47 47 58
-1.181816e+00 1.362209e-02 1.064009e+01 157 159 156
-1.152631e+00 3.734005e-02 1.057541e+01 158 159 153
-1.473710e+00 8.617179e-02 1.046745e+01 148 150 143
-1.473710e+00 8.617179e-02 1.046745e+01 148 150 143
-6.634730e-01 6.335923e-02 1.034176e+01 162 161 167
-1.517455e+00 1.480822e-01 1.032153e+01 149 146 140
-4.165768e-01 1.062570e-01 1.013567e+01 161 162 168
-4.084062e-01 1.011592e-01 1.011759e+01 161 162 168
-1.213034e+00 1.772760e-01 1.011808e+01 152 151 147
-1.552456e+00 2.332848e-01 1.001612e+01 151 147 144
-1.543839e+00 2.486479e-01 9.971858e+00 52 55 79
-1.559532e+00 2.548077e-01 9.939258e+00 167 164 162
-1.018424e+00 2.365430e-01 9.846459e+00 162 160 166
-1.181547e+00 2.968432e-01 9.698877e+00 154 153 149
-1.474792e+00 3.427542e-01 9.627843e+00 159 159 160
-5.960029e-01 4.427189e-01 9.131670e+00 154 154 149
-5.960029e-01 4.427189e-01 9.131670e+00 154 154 149
-3.986229e+00 6.531691e-01 9.396284e+00 153 146 132
-4.350056e+00 7.194712e-01 9.234538e+00 78 80 78
-4.126115e+00 1.137910e+00 7.852015e+00 184 181 192
-2.806462e+00 1.721005e+00 1.052730e+01 23 21 17
-2.853142e+00 1.735964e+00 1.051157e+01 25 23 21
-2.900572e+00 1.765021e+00 1.047203e+01 96 85 54
-2.689188e+00 1.870010e+00 1.064342e+01 35 33 20
-2.709428e+00 -7.734226e-02 1.148260e+01 27 22 20
-2.301539e+00 -5.883860e-02 1.133656e+01 60 50 57
-2.112328e+00 -6.956941e-02 1.130780e+01 156 157 124
-2.140902e+00 -3.615549e-02 1.121374e+01 144 145 104
-2.064741e+00 -3.476379e-02 1.118694e+01 154 152 129
-2.252418e+00 -2.279364e-03 1.114288e+01 143 139 121
-1.171503e+00 -5.026234e-02 1.091744e+01 156 158 154
-1.158529e+00 -3.944378e-02 1.089376e+01 159 158 158
-1.299127e+00 -2.939835e-02 1.089455e+01 57 61 86
3.290234e+00 -5.758953e+00 -4.586963e+00 48 50 74
-1.051482e+00 -1.474442e-02 1.069787e+01 74 75 110
-8.219290e-01 -2.610681e-02 1.065611e+01 75 79 105
-1.162936e+00 1.981782e-02 1.065507e+01 72 78 105
-1.801663e+00 7.498683e-02 1.068107e+01 61 64 79
-1.206094e+00 6.693494e-02 1.051225e+01 156 157 155
-1.521625e+00 1.016878e-01 1.045721e+01 55 52 75
-1.416345e+00 1.001371e-01 1.044788e+01 48 51 69
-1.613000e+00 2.269579e-01 1.006623e+01 162 157 157
-6.962469e-01 2.861586e-01 9.623388e+00 166 162 161
-1.247350e+00 3.702049e-01 9.510432e+00 164 162 165
-3.340523e-01 4.507668e-01 9.052638e+00 154 155 149
-4.442984e+00 6.789156e-01 9.383740e+00 153 147 137
-4.442984e+00 6.789156e-01 9.383740e+00 153 147 137
-2.637623e-01 4.577323e-01 8.976013e+00 147 144 141
-3.992006e-01 5.195997e-01 8.848371e+00 65 72 86
-4.515234e+00 7.820946e-01 9.146958e+00 160 155 149
-2.001472e-01 5.602994e-01 8.604347e+00 163 162 157
1.559638e-01 6.265924e-01 8.437986e+00 114 126 155
-4.296938e+00 8.901155e-01 8.681482e+00 166 166 159
-2.993580e+00 1.092286e+00 1.027030e+01 92 78 55
-5.389791e+00 1.060713e+00 8.411929e+00 151 144 125
-4.077384e+00 1.130779e+00 7.884979e+00 177 178 180
-2.958204e+00 1.343500e+00 1.034403e+01 51 45 43
-2.944462e+00 1.380423e+00 1.035708e+01 40 39 35
4.461955e-01 1.160474e+00 6.591765e+00 79 73 46
-1.076525e+01 6.475516e+00 -5.960440e+00 11 12 13
-2.365516e+00 -5.588975e-02 1.135012e+01 129 128 110
-2.326817e+00 -3.118112e-02 1.128383e+01 136 136 124
-2.838611e+00 3.905092e-02 1.119880e+01 66 54 74
-1.153127e+00 -4.816655e-02 1.091022e+01 66 66 96
-1.829524e+00 1.068586e-02 1.096246e+01 36 34 47
-1.409823e+00 6.836851e-02 1.053380e+01 57 57 84
-1.115382e+00 4.881223e-02 1.049437e+01 157 160 159
-1.981472e+00 1.214725e-01 1.057153e+01 155 149 149
-1.559577e+00 9.191283e-02 1.054489e+01 54 55 75
-4.209803e-01 1.867450e-02 1.041244e+01 80 83 116
-1.338899e+00 8.463669e-02 1.046849e+01 58 59 78
-6.980605e-01 6.752794e-02 1.036299e+01 79 82 111
-1.775503e+00 1.461143e-01 1.039092e+01 62 61 75
-1.083033e+00 1.637729e-01 1.011964e+01 73 81 102
-1.470471e+00 1.915516e-01 1.014236e+01 148 148 137
-1.144740e+00 1.758666e-01 1.009181e+01 73 79 109
-4.555722e-01 1.315493e-01 1.001550e+01 91 100 123
-5.021251e-01 1.379353e-01 1.001180e+01 89 95 116
-5.119398e-01 1.441268e-01 1.003538e+01 89 95 116
-1.200869e+00 1.982024e-01 1.004191e+01 54 62 87
-1.200259e+00 1.980157e-01 1.004001e+01 54 62 87
-6.763135e-01 1.804731e-01 9.966785e+00 81 89 116
-1.563858e+00 2.307152e-01 1.001323e+01 153 146 146
-6.088771e-01 1.846038e-01 9.897125e+00 80 90 117
-1.619282e+00 2.690712e-01 9.948206e+00 83 85 99
-1.619282e+00 2.690712e-01 9.948206e+00 83 85 99
-8.862851e-01 2.266205e-01 9.870183e+00 75 87 111
-9.736825e-01 2.596123e-01 9.782533e+00 70 79 91
-1.326524e+00 3.425156e-01 9.615320e+00 78 86 107
-1.359545e+00 3.989466e-01 9.411670e+00 71 81 112
-9.737588e-01 4.569548e-01 9.179110e+00 66 68 72
-8.002340e-01 4.525197e-01 9.106917e+00 142 141 137
-5.146424e-01 4.578146e-01 9.070328e+00 150 141 143
-5.087528e-01 4.530643e-01 9.051839e+00 150 141 143
-1.029705e+00 4.836391e-01 9.081037e+00 130 129 125
-1.062643e+00 5.091392e-01 9.026453e+00 75 81 101
-2.881984e-01 5.695998e-01 8.691097e+00 129 130 128
-3.852131e+00 8.418907e-01 8.726724e+00 177 176 178
-3.897177e+00 8.578907e-01 8.730973e+00 180 178 181
-4.321118e+00 9.256919e-01 8.619496e+00 167 167 157
-1.934351e+00 8.018069e-01 8.251673e+00 111 120 132
-4.186425e+00 9.178878e-01 8.562211e+00 175 175 175
-2.972023e+00 1.139881e+00 1.029210e+01 52 46 39
-3.759537e+00 1.079944e+00 7.943806e+00 101 111 129
-4.068634e+00 1.105207e+00 7.916748e+00 112 117 138
-4.068634e+00 1.105207e+00 7.916748e+00 112 117 138
-2.864997e+00 1.281739e+00 1.037975e+01 48 42 27
-2.948737e+00 1.300943e+00 1.032816e+01 50 44 32
-8.850161e-01 1.104448e+00 7.015168e+00 98 119 126
-2.764193e+00 1.509088e+00 1.049803e+01 92 81 57
-2.923966e+00 1.699354e+00 1.043779e+01 95 82 59
-2.929268e+00 1.715920e+00 1.045483e+01 55 49 42
-2.935269e+00 1.776243e+00 1.046597e+01 93 81 62
-2.837531e+00 1.813534e+00 1.054419e+01 67 64 59
-1.050515e+01 5.880415e+00 -6.039855e+00 19 24 19
-1.078450e+01 7.832877e+00 -5.929082e+00 49 50 60
-1.498299e+00 1.289423e-01 1.035169e+01 138 141 125
-7.047325e-01 8.368597e-02 1.031160e+01 104 111 127
-7.047325e-01 8.368597e-02 1.031160e+01 104 111 127
-9.023283e-01 1.928783e-01 9.989674e+00 159 163 172
-1.538264e+00 2.658419e-01 9.921235e+00 62 65 87
-5.523604e-01 2.314956e-01 9.796963e+00 160 161 166
-9.370948e-01 2.861903e-01 9.701702e+00 85 94 119
-1.136629e+00 3.086872e-01 9.668601e+00 66 69 89
-1.365427e+00 3.508694e-01 9.597904e+00 79 81 106
-1.388837e+00 4.056530e-01 9.418916e+00 98 97 120
-1.389687e+00 4.060110e-01 9.420392e+00 98 97 120
-1.148838e+00 4.060200e-01 9.351672e+00 76 79 115
-1.335605e+00 4.328991e-01 9.318060e+00 89 97 127
-9.947606e-01 4.309457e-01 9.258880e+00 150 147 134
-9.653742e-01 4.667375e-01 9.141349e+00 120 113 112
-6.799006e-01 4.664466e-01 9.067610e+00 135 133 140
-5.570244e-01 4.592462e-01 9.057140e+00 74 78 87
-4.056127e-01 4.551114e-01 9.024299e+00 128 128 133
-4.194616e-01 4.720587e-01 9.003427e+00 145 147 143
-2.631171e-01 4.755792e-01 8.970601e+00 97 103 116
-4.208780e-01 4.918625e-01 9.011680e+00 122 86 104
-7.919108e-01 5.205555e-01 8.936161e+00 52 58 58
-8.440481e-02 5.058028e-01 8.811536e+00 160 167 168
-1.108539e+00 5.512305e-01 8.875112e+00 114 111 120
-4.486957e+00 7.767626e-01 9.138239e+00 157 154 145
-4.615729e+00 7.923197e-01 9.118857e+00 98 96 109
2.616391e-01 6.118468e-01 8.418181e+00 158 167 180
-4.113894e+00 8.365429e-01 8.812836e+00 127 129 138
-6.020543e+00 9.734013e-01 8.955215e+00 79 72 24
-3.650043e+00 8.648673e-01 8.612355e+00 104 111 128
-7.507621e-02 7.430447e-01 8.028383e+00 63 61 56
-3.981869e+00 9.361880e-01 8.434693e+00 114 121 144
-4.024550e+00 9.367940e-01 8.452170e+00 101 116 140
-2.861217e+00 1.116620e+00 1.035295e+01 64 61 45
-2.790698e+00 1.135885e+00 1.038231e+01 51 44 34
-3.753329e+00 1.031878e+00 8.094089e+00 114 125 145
-3.951985e+00 1.076274e+00 7.970039e+00 110 120 140
2.216066e-01 1.146730e+00 6.642174e+00 90 84 62
-6.377594e+00 1.486738e+00 7.185818e+00 59 52 31
1.927592e-01 2.463188e+00 2.142747e+00 79 73 64
-1.489389e+00 9.963973e-02 1.046977e+01 80 73 96
-1.434236e+00 9.773832e-02 1.044762e+01 132 137 125
-1.734795e+00 1.664628e-01 1.030193e+01 84 82 94
-1.733823e+00 1.645397e-01 1.029891e+01 84 82 94
-1.429996e+00 3.212384e-01 9.766790e+00 151 153 153
-1.261737e+00 3.792421e-01 9.496063e+00 88 97 113
-1.212884e+00 4.084837e-01 9.406992e+00 92 99 117
-1.209157e+00 4.056422e-01 9.392060e+00 92 99 117
-1.263712e+00 4.171470e-01 9.359657e+00 93 93 117
-4.398570e+00 6.043415e-01 9.659584e+00 86 79 93
-9.128412e-01 4.257323e-01 9.252089e+00 103 110 118
-4.076788e-01 4.706404e-01 9.022596e+00 79 84 103
-4.076788e-01 4.706404e-01 9.022596e+00 79 84 103
-1.067978e+00 5.617504e-01 8.826681e+00 145 150 153
-1.067989e+00 5.629702e-01 8.833243e+00 145 150 153
-1.359314e+00 6.352550e-01 8.628841e+00 101 112 128
-4.704929e+00 8.235725e-01 9.001657e+00 159 156 144
2.975683e-01 6.308386e-01 8.365275e+00 152 158 180
-1.666615e+00 7.860820e-01 8.225428e+00 157 167 184
-4.038339e+00 9.469068e-01 8.437228e+00 177 179 182
-4.203876e+00 9.997774e-01 8.317719e+00 122 125 144
4.116359e-01 8.760947e-01 7.532105e+00 96 114 113
-6.647217e+00 1.305925e+00 7.850627e+00 48 39 31
-6.678341e+00 1.304112e+00 7.798348e+00 48 39 31
-1.514580e+00 1.132337e+00 7.046024e+00 138 144 150
-2.738925e+00 1.993067e+00 1.063645e+01 90 89 80
-2.193945e+00 2.302686e+00 9.881203e+00 171 167 181
-2.797304e+00 -2.386237e-02 1.149917e+01 139 135 122
-2.797304e+00 -2.386237e-02 1.149917e+01 139 135 122
-4.013277e+00 6.671405e-01 9.482773e+00 73 66 75
-2.915035e+00 -2.717964e-02 1.134132e+01 118 117 94
-3.711734e+00 1.951171e-01 1.089925e+01 158 155 140
-2.690622e+00 1.774100e+00 1.063734e+01 16 16 14
-2.690622e+00 1.774100e+00 1.063734e+01 16 16 14
-3.160870e+00 -4.857337e-02 1.148965e+01 44 42 49
-1.089877e+00 -1.666881e-01 1.109852e+01 50 42 54
-4.773747e+00 1.429656e-01 1.110308e+01 90 84 39
-1.862749e+00 7.162662e-02 1.078041e+01 161 158 153
-1.630578e+00 8.180430e-02 1.060347e+01 154 153 151
-4.294234e+00 7.007599e-01 9.274687e+00 79 75 82
-2.392616e+00 -4.968887e-02 1.133811e+01 148 141 132
-3.017994e+00 -1.114269e-02 1.128797e+01 146 141 119
-1.116459e+00 -7.817721e-02 1.087550e+01 87 85 101
-1.562688e+00 1.772128e-01 1.024994e+01 150 147 140
-1.597922e+00 1.705769e-01 1.016044e+01 150 147 140
-1.683970e+00 2.149570e-01 1.018620e+01 170 168 169
-1.145598e+00 2.517654e-01 9.874361e+00 150 151 145
-1.145598e+00 2.517654e-01 9.874361e+00 150 151 145
-7.373789e-01 2.274522e-01 9.646769e+00 168 168 170
-2.975189e+00 4.638064e-01 1.010786e+01 78 66 44
-3.046794e+00 5.113172e-01 1.009057e+01 25 26 21
-1.267253e+00 4.600473e-01 9.348623e+00 170 169 168
-1.195623e+00 4.953825e-01 9.143200e+00 91 99 110
-2.760368e+00 1.096930e+00 1.043746e+01 100 85 63
-2.724669e+00 1.556393e+00 1.057362e+01 93 82 59
-2.898181e+00 2.146579e+00 1.056669e+01 13 13 11
-8.034772e-01 -1.446071e-01 1.098162e+01 138 136 124
-4.625276e+00 1.552997e-01 1.099329e+01 23 24 19
-1.229271e+00 3.909516e-02 1.062178e+01 156 157 159
1.175580e-01 5.405306e-02 9.986038e+00 44 42 57
-2.014547e-02 5.838827e-02 9.987718e+00 151 152 149
-2.578043e-01 1.238669e-01 9.982649e+00 161 161 163
-7.660711e-01 2.836676e-01 9.607386e+00 72 81 111
-4.004244e+00 6.355321e-01 9.427750e+00 150 148 138
-2.639067e+00 1.475832e+00 1.053600e+01 90 74 50
-3.162867e+00 -6.276167e-02 1.149055e+01 13 11 18
-3.138611e+00 -4.589202e-02 1.143882e+01 17 13 20
-3.138611e+00 -4.589202e-02 1.143882e+01 17 13 20
-2.800755e+00 -5.172409e-02 1.141578e+01 142 137 113
-1.904496e+00 -8.257087e-02 1.124893e+01 105 98 76
-1.571111e+00 1.213606e-01 1.042954e+01 154 150 151
-4.221594e-01 9.195803e-02 1.006787e+01 164 163 169
1.415663e-01 7.086553e-02 9.940755e+00 43 42 43
5.403487e-02 8.679074e-02 9.921649e+00 57 56 70
-3.387433e-02 1.101658e-01 9.955105e+00 62 67 87
-6.409778e-01 1.481846e-01 9.989071e+00 167 167 169
-1.051723e-01 1.285754e-01 9.912761e+00 70 76 100
-2.335408e-01 1.556717e-01 9.873693e+00 79 88 117
-1.600417e+00 2.554770e-01 1.003732e+01 165 158 165
-4.327271e-01 1.998306e-01 9.752665e+00 82 93 128
-4.966645e-01 2.106266e-01 9.727728e+00 83 92 124
-4.966645e-01 2.106266e-01 9.727728e+00 83 92 124
-9.598243e-01 3.167303e-01 9.588590e+00 167 162 166
-9.754124e-01 3.329865e-01 9.522569e+00 64 74 100
-1.241449e+00 4.136095e-01 9.389731e+00 68 76 103
-1.337286e+00 4.238604e-01 9.419848e+00 69 80 109
-1.124159e+00 4.373574e-01 9.338783e+00 163 162 160
-4.583741e-01 6.842821e-01 8.342859e+00 58 68 92
-2.877745e+00 1.787487e+00 1.051561e+01 17 17 15
-2.899481e-01 2.517292e+00 1.061143e+01 247 252 255
-3.195905e+00 -5.342063e-02 1.146145e+01 25 19 32
-2.190006e+00 -1.138035e-01 1.141888e+01 149 147 126
-1.815113e+00 -1.488855e-01 1.138585e+01 75 65 62
-2.722837e+00 -7.407157e-02 1.143401e+01 138 135 116
-1.702421e+00 -1.542186e-01 1.134736e+01 147 146 126
-1.575039e+00 -1.628248e-01 1.132265e+01 35 28 34
-1.991858e+00 -1.159173e-01 1.133791e+01 169 165 137
-2.033419e+00 -1.062268e-01 1.132285e+01 168 165 142
-2.311217e+00 -7.214725e-02 1.135269e+01 40 35 35
-2.002904e+00 -9.872733e-02 1.132019e+01 110 101 93
-2.002904e+00 -9.872733e-02 1.132019e+01 110 101 93
-2.345620e+00 -6.211582e-02 1.133063e+01 37 35 38
-1.677617e+00 -1.268329e-01 1.125757e+01 70 62 58
-1.677617e+00 -1.268329e-01 1.125757e+01 70 62 58
-2.038378e+00 -8.543591e-02 1.130254e+01 107 101 89
-9.874279e-01 -1.851052e-01 1.115947e+01 134 131 111
-1.955307e+00 -6.806764e-02 1.122557e+01 167 166 138
-3.020142e+00 1.851679e-02 1.125536e+01 29 23 23
-3.020142e+00 1.851679e-02 1.125536e+01 29 23 23
-1.171983e+00 -1.400530e-01 1.109031e+01 138 136 120
-1.212665e+00 -1.268312e-01 1.107916e+01 138 134 120
-2.108184e+00 -3.222670e-02 1.116566e+01 157 150 132
-1.372292e+00 -8.806869e-02 1.103284e+01 143 140 128
-1.372292e+00 -8.806869e-02 1.103284e+01 143 140 128
-9.315670e-01 -1.233769e-01 1.093407e+01 145 142 133
-3.978247e-01 -1.262157e-01 1.074332e+01 134 131 116
-1.774527e+00 7.359260e-03 1.089793e+01 155 152 143
-2.056512e+00 7.475695e-02 1.080053e+01 159 155 145
-2.056512e+00 7.475695e-02 1.080053e+01 159 155 145
-1.520091e-01 4.409532e-02 1.022157e+01 155 153 155
-1.776497e+00 1.741883e-01 1.036737e+01 169 166 167
-4.738044e-01 1.060582e-01 1.007187e+01 165 166 171
-1.447514e+00 2.092176e-01 1.006501e+01 153 149 146
-1.509902e-01 1.427580e-01 9.930773e+00 159 160 159
-7.531840e-01 1.670869e-01 9.883763e+00 168 167 172
-9.039772e-01 2.113958e-01 9.850387e+00 167 162 166
-5.874378e-01 2.388600e-01 9.677122e+00 167 166 168
-1.362804e+00 3.236589e-01 9.686621e+00 163 161 165
-1.467095e+00 3.510558e-01 9.734372e+00 158 158 163
-1.405359e+00 3.342256e-01 9.661912e+00 162 159 157
-1.204528e+00 3.348128e-01 9.670909e+00 158 156 154
-1.044625e+00 3.292240e-01 9.587255e+00 163 159 160
-1.307253e+00 3.607129e-01 9.634443e+00 159 157 158
-1.345615e+00 3.699918e-01 9.619883e+00 166 163 163
-1.094559e+00 3.631904e-01 9.531114e+00 159 160 155
-1.141186e+00 3.721736e-01 9.514887e+00 57 61 88
-4.449606e+00 5.903366e-01 9.607242e+00 100 93 103
-4.449606e+00 5.903366e-01 9.607242e+00 100 93 103
-4.528385e+00 6.074842e-01 9.581806e+00 68 66 69
-4.824618e+00 6.769658e-01 9.423088e+00 134 133 130
-4.118519e+00 6.553837e-01 9.309007e+00 126 124 121
-2.830651e+00 9.670940e-01 1.031668e+01 97 86 65
-3.600873e+00 8.527837e-01 8.668043e+00 165 170 176
-2.332717e-01 7.593482e-01 7.965818e+00 59 39 35
-3.850353e+00 1.051506e+00 8.134744e+00 159 166 176
-3.728460e+00 1.055755e+00 8.100674e+00 182 181 184
-3.728460e+00 1.055755e+00 8.100674e+00 182 181 184
-3.812254e+00 1.097887e+00 7.981512e+00 158 165 176
-3.658874e+00 1.141703e+00 7.854665e+00 152 152 161
-3.658874e+00 1.141703e+00 7.854665e+00 152 152 161
-4.032378e+00 1.160405e+00 7.892405e+00 144 145 157
-2.739559e+00 1.642872e+00 1.054186e+01 94 82 56
-2.861382e+00 2.046143e+00 1.056420e+01 16 16 16
-2.861382e+00 2.046143e+00 1.056420e+01 16 16 16
-2.920445e+00 2.095549e+00 1.055446e+01 14 14 12
-2.580166e+00 -1.190596e-01 1.153659e+01 137 135 110
-2.580166e+00 -1.190596e-01 1.153659e+01 137 135 110
-2.561185e+00 -1.090458e-01 1.151857e+01 132 131 109
-2.543839e+00 -1.087858e-01 1.150965e+01 30 22 26
-2.646269e+00 -9.252343e-02 1.149192e+01 132 132 101
-2.624270e+00 -8.629276e-02 1.149200e+01 28 22 25
-2.184923e+00 -1.215989e-01 1.145972e+01 61 54 51
-2.122158e+00 -1.231184e-01 1.142846e+01 80 73 62
-3.168522e+00 -5.057380e-02 1.146349e+01 134 135 102
-2.700436e+00 -7.701358e-02 1.144745e+01 24 20 23
-2.162689e+00 -1.125311e-01 1.141445e+01 77 68 69
-2.790018e+00 -6.355127e-02 1.144793e+01 23 18 16
-2.200376e+00 -1.082764e-01 1.138690e+01 71 62 65
-1.817644e+00 -1.421139e-01 1.134620e+01 159 154 133
-2.732850e+00 -6.092795e-02 1.141371e+01 31 22 36
-2.732850e+00 -6.092795e-02 1.141371e+01 31 22 36
-2.847885e+00 -4.959044e-02 1.142587e+01 136 133 116
-2.767481e+00 -5.072870e-02 1.140470e+01 25 22 24
-2.767481e+00 -5.072870e-02 1.140470e+01 25 22 24
-2.274602e+00 -7.591183e-02 1.138590e+01 60 51 53
-2.065308e+00 -1.048757e-01 1.135021e+01 102 95 82
-1.964254e+00 -1.111457e-01 1.133963e+01 111 105 92
-8.753271e-01 -2.054967e-01 1.117351e+01 25 20 23
-2.918554e+00 -1.622176e-02 1.133380e+01 24 20 17
-4.562205e-01 -2.417122e-01 1.110542e+01 121 122 97
-1.851302e+00 -8.914628e-02 1.124847e+01 103 97 78
-3.082027e+00 5.273967e-03 1.130761e+01 26 21 27
-3.082027e+00 5.273967e-03 1.130761e+01 26 21 27
-1.122325e+00 -1.504366e-01 1.111224e+01 27 19 33
-6.183088e-01 -1.907794e-01 1.103305e+01 37 28 36
-6.183088e-01 -1.907794e-01 1.103305e+01 37 28 36
-2.161865e+00 -2.850554e-02 1.122852e+01 60 57 53
-2.161865e+00 -2.850554e-02 1.122852e+01 60 57 53
-1.180234e+00 -1.278232e-01 1.106045e+01 24 25 26
-7.581204e-01 -1.592689e-01 1.100783e+01 131 129 113
-7.722430e-01 -1.577619e-01 1.099256e+01 34 25 37
-1.384989e+00 -7.224002e-02 1.098032e+01 144 144 134
-3.576373e-01 -1.326760e-01 1.075700e+01 129 128 110
-1.255302e+00 -4.571980e-02 1.082900e+01 157 158 153
-3.654198e-01 -1.180905e-01 1.073072e+01 35 27 24
-1.290687e+00 -3.698984e-02 1.081959e+01 155 155 154
-1.257291e+00 -3.511642e-02 1.079158e+01 54 60 87
-1.898357e+00 2.680507e-02 1.087646e+01 50 47 64
-5.445949e-01 -9.636749e-02 1.066811e+01 147 147 146
-7.777771e-01 -3.800556e-02 1.060694e+01 159 159 160
-1.153993e+00 6.794520e-03 1.067580e+01 157 155 161
-1.175097e+00 1.532889e-02 1.058030e+01 65 70 101
-1.352118e-01 -4.971007e-02 1.042898e+01 48 42 42
-1.352681e+00 3.791774e-02 1.053035e+01 150 148 149
-1.352681e+00 3.791774e-02 1.053035e+01 150 148 149
-9.774646e-01 1.647457e-02 1.050726e+01 74 78 107
-2.087149e-01 -3.737021e-02 1.039635e+01 61 59 79
-1.699696e+00 1.249567e-01 1.044030e+01 150 150 147
-1.189438e-01 3.004963e-03 1.023696e+01 147 147 135
-1.619922e-03 2.856262e-02 1.019056e+01 143 140 132
-2.867527e-01 4.804150e-02 1.022378e+01 158 157 158
-4.484072e-01 7.873866e-02 1.010819e+01 163 163 167
-4.484072e-01 7.873866e-02 1.010819e+01 163 163 167
-7.088180e-01 1.356376e-01 1.001924e+01 163 162 164
-1.511919e+00 2.082395e-01 1.013530e+01 149 147 146
-9.905261e-01 2.132057e-01 9.756176e+00 162 160 166
-1.248325e+00 2.637527e-01 9.809577e+00 154 151 157
-1.188934e+00 3.023612e-01 9.726898e+00 154 153 149
-4.330204e+00 4.944212e-01 1.001293e+01 157 156 135
-1.367741e+00 3.068608e-01 9.620003e+00 157 160 162
-5.248777e+00 5.631584e-01 9.933056e+00 116 113 94
3.666561e-01 2.867915e-01 9.199122e+00 88 99 125
-4.616829e+00 6.269149e-01 9.529508e+00 77 76 79
-1.052467e+00 4.433859e-01 9.262027e+00 70 73 80
-1.188202e+00 4.782765e-01 9.213582e+00 84 92 102
-4.031780e+00 6.288330e-01 9.438666e+00 154 150 137
-4.194939e+00 6.645070e-01 9.356372e+00 151 147 136
-4.149817e+00 6.682281e-01 9.324778e+00 66 64 66
-4.149817e+00 6.682281e-01 9.324778e+00 66 64 66
-4.355290e+00 7.157150e-01 9.216426e+00 78 80 78
-6.477333e-02 4.868793e-01 8.693390e+00 109 117 132
-9.144568e-01 5.576565e-01 8.833166e+00 90 98 117
-5.906349e+00 8.114640e-01 9.269107e+00 134 127 115
-4.578792e+00 7.699126e-01 9.104256e+00 143 144 146
-4.578792e+00 7.699126e-01 9.104256e+00 143 144 146
-5.675974e+00 9.175060e-01 8.844005e+00 141 138 119
3.318466e-01 1.142113e+00 6.702211e+00 149 145 134
2.771574e-01 1.209282e+00 6.433101e+00 75 59 44
2.771574e-01 1.209282e+00 6.433101e+00 75 59 44
-2.922698e+00 1.751581e+00 1.047538e+01 34 34 35
-2.589074e+00 1.843779e+00 1.061345e+01 29 28 24
-2.735634e+00 2.013981e+00 1.064885e+01 14 13 11
-2.735634e+00 2.013981e+00 1.064885e+01 14 13 11
-2.435496e+00 2.254959e+00 1.020509e+01 160 159 172
-3.165799e-01 2.440243e+00 1.074351e+01 107 121 127
-2.531898e+00 -1.229519e-01 1.154543e+01 127 128 97
-2.561742e+00 -1.202100e-01 1.154160e+01 41 31 38
-2.500981e+00 -1.127341e-01 1.151493e+01 46 37 50
-2.668663e+00 -9.335771e-02 1.149314e+01 52 39 55
-3.185061e+00 -6.196214e-02 1.148829e+01 123 125 87
-1.839744e+00 -1.622902e-01 1.142681e+01 69 59 57
-2.846039e+00 -6.432238e-02 1.144701e+01 44 36 46
-2.294052e+00 -9.484228e-02 1.141787e+01 48 40 42
-2.294052e+00 -9.484228e-02 1.141787e+01 48 40 42
-1.802705e+00 -1.419342e-01 1.135768e+01 84 76 72
-1.802705e+00 -1.419342e-01 1.135768e+01 84 76 72
-2.843353e+00 -4.585736e-02 1.140465e+01 133 133 106
-8.963200e-01 -2.171865e-01 1.121276e+01 20 19 19
-1.650816e+00 -1.359781e-01 1.129870e+01 65 56 74
-2.141137e+00 -8.455973e-02 1.132207e+01 89 81 77
-2.141137e+00 -8.455973e-02 1.132207e+01 89 81 77
-4.895523e-01 -2.388867e-01 1.113328e+01 27 23 19
-4.895523e-01 -2.388867e-01 1.113328e+01 27 23 19
-1.991212e+00 -9.337878e-02 1.129004e+01 116 110 99
-1.017816e+00 -1.855701e-01 1.117208e+01 27 22 22
-5.049457e-01 -2.237529e-01 1.108583e+01 34 22 22
-5.616814e-01 -2.182728e-01 1.109330e+01 43 27 32
-9.557501e-01 -1.751065e-01 1.114201e+01 135 133 120
-1.946056e+00 -8.062511e-02 1.124715e+01 104 93 94
-4.572410e-01 -2.195578e-01 1.106371e+01 45 30 38
-5.629716e-01 -2.098698e-01 1.107484e+01 124 123 102
-1.067751e+00 -1.613680e-01 1.111785e+01 29 20 27
-6.445792e-01 -1.935517e-01 1.104693e+01 127 127 110
-2.293576e+00 -3.257670e-02 1.123813e+01 145 144 123
-1.145574e+00 -1.389655e-01 1.109186e+01 27 24 20
-7.100030e-01 -1.801980e-01 1.103453e+01 35 31 35
-7.151806e-01 -1.698933e-01 1.101997e+01 127 127 108
-9.650060e-01 -1.198648e-01 1.094786e+01 42 41 56
-1.043318e+00 -1.009276e-01 1.091959e+01 61 58 77
-4.850001e+00 1.503243e-01 1.102884e+01 34 33 24
-4.850001e+00 1.503243e-01 1.102884e+01 34 33 24
-1.732469e+00 -8.842289e-03 1.093759e+01 34 33 43
-3.348915e-01 -1.323687e-01 1.075368e+01 37 32 33
-3.348915e-01 -1.323687e-01 1.075368e+01 37 32 33
-6.857622e-01 -6.093849e-02 1.063324e+01 76 81 111
-6.857622e-01 -6.093849e-02 1.063324e+01 76 81 111
-2.014000e+00 5.906880e-02 1.079564e+01 153 153 142
-2.068318e+00 7.849559e-02 1.076210e+01 55 53 77
-1.112546e+00 -1.137436e-02 1.063578e+01 73 75 112
-1.146273e+00 2.421423e-03 1.060318e+01 72 78 105
-1.798821e+00 7.148591e-02 1.066779e+01 61 64 79
-1.558843e-01 -4.600638e-02 1.050007e+01 135 133 113
-2.380289e-01 -3.882424e-02 1.042029e+01 147 142 139
-1.950674e+00 1.061801e-01 1.060596e+01 57 58 78
-4.173458e-01 -1.861053e-02 1.040221e+01 79 85 108
-1.145194e+00 4.263692e-02 1.048908e+01 160 157 164
-1.165231e+00 5.013922e-02 1.044666e+01 71 73 110
1.632920e-02 -2.853302e-02 1.029113e+01 39 34 41
1.632920e-02 -2.853302e-02 1.029113e+01 39 34 41
-1.678795e-01 1.286158e-02 1.021969e+01 71 77 93
-1.645065e-01 3.276329e-02 1.027807e+01 68 69 91
-1.529557e+00 1.329227e-01 1.035044e+01 148 150 138
-7.528016e-01 7.330622e-02 1.022278e+01 79 86 106
-3.783826e-02 2.839555e-02 1.013903e+01 59 64 72
-3.805904e-01 6.179920e-02 1.013735e+01 156 163 159
-8.786880e-01 1.016343e-01 1.019817e+01 75 78 114
-3.533723e-01 8.118618e-02 1.007447e+01 159 162 162
-3.533723e-01 8.118618e-02 1.007447e+01 159 162 162
-1.090353e+00 1.596962e-01 1.017186e+01 156 153 157
-1.241214e+00 1.885014e-01 1.008284e+01 146 148 142
-1.548941e+00 2.156506e-01 1.011159e+01 148 145 146
-8.922705e-01 2.325373e-01 9.833226e+00 162 161 159
-8.922705e-01 2.325373e-01 9.833226e+00 162 161 159
-1.108429e+00 2.461371e-01 9.842371e+00 57 68 85
-1.432784e+00 3.006704e-01 9.708523e+00 155 157 156
-1.927900e-03 2.407613e-01 9.588742e+00 169 170 175
-5.128783e+00 5.315451e-01 9.942523e+00 160 156 138
-2.795260e+00 5.981203e-01 1.025750e+01 68 65 55
-4.421930e-01 4.487977e-01 9.044987e+00 59 79 106
-8.848973e-01 4.817066e-01 9.073537e+00 106 107 109
-4.064142e+00 6.683046e-01 9.332319e+00 154 147 130
-1.083492e-01 4.624802e-01 8.959143e+00 101 112 124
-4.263169e+00 6.791838e-01 9.314736e+00 152 149 136
-4.263169e+00 6.791838e-01 9.314736e+00 152 149 136
-4.125757e+00 6.858307e-01 9.322790e+00 154 152 134
-4.216076e+00 6.804743e-01 9.279812e+00 103 104 100
-4.156568e+00 6.929921e-01 9.305649e+00 156 147 142
-4.553640e+00 7.323925e-01 9.216146e+00 92 90 95
-4.553640e+00 7.323925e-01 9.216146e+00 92 90 95
-1.364341e-01 5.053874e-01 8.777570e+00 88 101 116
-4.335065e+00 7.308888e-01 9.202789e+00 157 153 143
-4.603403e+00 7.453349e-01 9.206057e+00 108 108 119
-4.603403e+00 7.453349e-01 9.206057e+00 108 108 119
-4.586443e+00 7.499802e-01 9.146215e+00 158 152 143
-4.419808e+00 7.503814e-01 9.164044e+00 160 155 147
-4.474277e+00 7.553742e-01 9.105163e+00 162 157 152
-4.652999e+00 8.088942e-01 9.063779e+00 159 156 149
-2.051722e-01 5.953062e-01 8.535666e+00 160 160 155
-4.126213e-01 6.243521e-01 8.516125e+00 52 57 57
-4.161832e+00 8.906022e-01 8.695858e+00 176 172 172
-4.096582e+00 9.033920e-01 8.655791e+00 178 175 179
-4.151062e+00 9.037711e-01 8.646971e+00 109 112 131
-7.442920e-01 7.695793e-01 8.149067e+00 98 109 129
-3.643123e+00 1.035405e+00 8.198879e+00 182 185 188
-3.772876e+00 1.061310e+00 8.099976e+00 179 177 179
-3.772876e+00 1.061310e+00 8.099976e+00 179 177 179
-2.884226e+00 1.243746e+00 1.035556e+01 70 65 52
-3.909974e+00 1.093155e+00 8.048950e+00 180 179 183
-3.945835e+00 1.105328e+00 7.985769e+00 178 179 178
-2.957350e+00 1.344372e+00 1.035449e+01 51 45 43
-3.514979e+00 1.208774e+00 7.566951e+00 175 173 174
-2.941496e+00 1.381795e+00 1.039430e+01 40 39 35
4.004565e-01 1.134122e+00 6.657031e+00 153 149 139
3.879048e-01 1.174781e+00 6.523113e+00 76 67 44
3.306713e-01 1.189404e+00 6.496950e+00 70 64 36
2.797120e-02 1.220771e+00 6.519419e+00 150 146 135
2.086429e-01 1.222778e+00 6.438135e+00 84 82 49
8.594675e-02 1.247010e+00 6.364911e+00 94 87 61
-2.610796e-02 1.283511e+00 6.336415e+00 79 71 53
-2.727500e+00 1.987077e+00 1.063574e+01 17 15 14
-2.832354e+00 2.009925e+00 1.059465e+01 16 15 12
-3.240720e-01 2.460181e+00 1.066327e+01 110 115 134
-2.872749e+00 -1.064733e-01 1.157309e+01 140 135 116
-3.024509e+00 -7.080919e-02 1.150123e+01 136 133 124
-3.183822e+00 -6.071563e-02 1.149080e+01 121 123 85
-2.811270e+00 -6.174534e-02 1.146398e+01 123 125 96
-2.811270e+00 -6.174534e-02 1.146398e+01 123 125 96
-1.726245e+00 -1.580578e-01 1.138059e+01 83 69 82
-1.796301e+00 -1.482415e-01 1.136836e+01 147 149 118
-2.150643e+00 -1.054852e-01 1.140556e+01 156 152 133
-2.841978e+00 -5.547960e-02 1.143185e+01 126 127 94
-2.706730e+00 -5.819100e-02 1.142349e+01 65 48 70
-3.127711e+00 -3.420826e-02 1.142135e+01 145 140 123
-2.344539e+00 -3.821913e-02 1.130482e+01 62 48 74
-1.088147e+00 -1.692381e-01 1.114656e+01 42 34 54
-3.042945e+00 2.125185e-02 1.125738e+01 127 132 92
-2.826320e-01 -1.597510e-01 1.081470e+01 48 36 48
-1.824824e+00 2.378325e-03 1.093783e+01 36 34 47
-4.342377e-01 -1.222737e-01 1.075741e+01 42 39 36
-1.884773e+00 3.345157e-02 1.085323e+01 150 152 148
-1.850949e+00 2.997518e-02 1.083371e+01 63 62 87
-1.850949e+00 2.997518e-02 1.083371e+01 63 62 87
-9.828395e-01 -3.382492e-02 1.067069e+01 73 79 99
-1.582199e+00 2.479617e-02 1.074829e+01 50 47 73
-1.060501e+00 -1.599534e-02 1.064993e+01 74 80 100
-1.167873e+00 -2.931635e-03 1.064559e+01 69 72 103
-1.167078e+00 -3.405917e-03 1.064361e+01 69 72 103
-1.687718e+00 4.741701e-02 1.071307e+01 65 64 78
-1.728393e+00 5.747747e-02 1.069882e+01 58 61 79
-1.732519e+00 6.280390e-02 1.072172e+01 58 61 79
-1.814039e-01 -4.823612e-02 1.051633e+01 32 33 26
-1.256081e+00 2.826538e-02 1.057494e+01 65 68 90
-1.694738e+00 7.266975e-02 1.063721e+01 66 67 87
-1.533539e-01 -5.676233e-02 1.043802e+01 138 128 130
-2.292663e-01 -4.850957e-02 1.043794e+01 57 57 65
-1.213868e+00 5.280180e-02 1.048286e+01 67 72 94
-1.476064e+00 7.834352e-02 1.049878e+01 54 58 84
-1.519285e+00 9.957099e-02 1.044786e+01 57 55 78
-1.064635e-01 -3.627443e-03 1.025937e+01 58 60 69
-1.064635e-01 -3.627443e-03 1.025937e+01 58 60 69
-1.652218e+00 1.275237e-01 1.043957e+01 150 152 142
-1.535899e+00 1.146555e-01 1.040824e+01 147 145 133
-1.440065e-01 2.853689e-03 1.023950e+01 70 70 87
-1.437818e+00 1.106201e-01 1.040266e+01 142 145 132
-1.449386e+00 1.089322e-01 1.038906e+01 44 41 57
-1.837223e+00 1.518860e-01 1.040175e+01 49 52 64
-1.496378e+00 1.255950e-01 1.034660e+01 142 145 127
-7.306936e-01 6.501281e-02 1.024402e+01 76 81 108
-7.488441e-01 6.756053e-02 1.024895e+01 157 162 164
-6.383484e-01 6.273898e-02 1.022964e+01 86 90 119
-5.063735e-03 1.624630e-02 1.015052e+01 54 53 58
-3.955810e-02 4.010042e-02 1.017684e+01 147 148 135
-8.216537e-01 9.084302e-02 1.019583e+01 81 91 117
-1.412650e-01 6.421736e-02 1.015453e+01 154 151 146
-2.566451e-01 8.701232e-02 1.014888e+01 85 89 107
-2.566451e-01 8.701232e-02 1.014888e+01 85 89 107
-4.891557e-01 8.601557e-02 1.010126e+01 159 163 163
-4.636273e-01 8.571285e-02 1.008592e+01 86 91 117
-9.906883e-01 1.256257e-01 1.014674e+01 154 159 163
-2.392944e-01 7.164357e-02 1.004533e+01 82 87 114
-1.003895e+00 1.355259e-01 1.013974e+01 74 79 98
-1.132522e+00 1.514447e-01 1.012708e+01 69 73 112
-1.143634e+00 1.746390e-01 1.008734e+01 73 79 109
-4.241036e-01 1.192611e-01 9.981930e+00 159 167 157
-1.519723e+00 2.046495e-01 1.011637e+01 148 147 137
-1.683043e+00 2.330971e-01 1.006277e+01 79 77 95
-8.801740e-01 1.788124e-01 9.967911e+00 78 83 108
-6.577095e-01 1.680405e-01 9.919846e+00 81 89 116
-1.677547e+00 2.430291e-01 1.002898e+01 157 158 152
-7.307667e-01 1.849279e-01 9.889820e+00 77 84 111
-8.779154e-01 2.209916e-01 9.846081e+00 75 87 111
-8.196787e-01 2.189730e-01 9.824071e+00 81 89 107
3.484868e-01 1.539502e-01 9.716285e+00 141 135 121
-1.289317e+00 3.268388e-01 9.689983e+00 63 64 76
-1.304610e+00 3.325633e-01 9.688227e+00 155 154 155
-1.334637e+00 3.308268e-01 9.667098e+00 74 82 103
-4.302705e+00 5.622510e-01 9.703632e+00 149 144 126
7.195176e-01 3.417914e-01 9.037789e+00 138 135 141
-9.792194e-01 4.595880e-01 9.198842e+00 66 68 72
-5.179297e-01 4.484976e-01 9.111388e+00 69 75 98
-4.178015e+00 6.488906e-01 9.421513e+00 107 102 107
-4.178015e+00 6.488906e-01 9.421513e+00 107 102 107
-4.222502e+00 6.583517e-01 9.398457e+00 103 101 105
-4.276360e+00 6.714112e-01 9.376209e+00 97 97 103
-3.941832e+00 6.642985e-01 9.352912e+00 149 148 128
-4.282029e+00 6.849273e-01 9.342810e+00 150 146 135
-4.093820e+00 6.828985e-01 9.336114e+00 152 147 128
-4.326138e-02 4.718530e-01 8.822074e+00 108 118 129
-2.406365e-01 5.273256e-01 8.828688e+00 120 120 128
-8.826538e-01 5.634179e-01 8.845519e+00 118 118 126
-1.037081e+00 5.734114e-01 8.815034e+00 161 161 161
-1.033531e+00 5.705577e-01 8.799731e+00 161 161 161
-4.629202e+00 8.034415e-01 9.064210e+00 161 156 152
-3.006248e+00 9.679917e-01 1.023267e+01 61 58 47
-6.702702e-01 6.507985e-01 8.491671e+00 80 95 111
2.075482e-01 6.085564e-01 8.318767e+00 114 126 154
-4.200578e+00 8.466142e-01 8.825115e+00 168 165 154
-4.200578e+00 8.466142e-01 8.825115e+00 168 165 154
-5.597894e+00 9.176464e-01 8.921371e+00 131 134 100
-3.926287e+00 8.539249e-01 8.763146e+00 109 115 132
-4.266186e+00 8.756979e-01 8.756008e+00 114 114 120
-3.940220e+00 8.690365e-01 8.718690e+00 177 176 182
-5.641745e+00 9.614800e-01 8.751987e+00 81 73 60
-4.360701e+00 9.103314e-01 8.665410e+00 167 164 161
-4.379874e+00 9.163250e-01 8.682877e+00 166 165 159
-4.280161e+00 9.306089e-01 8.572618e+00 110 109 124
-4.280161e+00 9.306089e-01 8.572618e+00 110 109 124
-2.969878e+00 1.143517e+00 1.032697e+01 52 46 39
-3.595422e+00 1.003235e+00 8.264766e+00 182 183 185
-3.484007e+00 1.001672e+00 8.182909e+00 176 177 174
-3.568209e+00 1.019596e+00 8.147011e+00 178 176 172
-3.568209e+00 1.019596e+00 8.147011e+00 178 176 172
-3.636310e+00 1.061017e+00 8.065231e+00 109 115 135
-3.993471e+00 1.082740e+00 8.071713e+00 105 112 129
-2.885848e+00 1.330734e+00 1.041566e+01 43 33 25
-8.865277e-01 1.085177e+00 7.141951e+00 88 113 126
-2.703061e+00 1.498013e+00 1.056192e+01 92 80 65
-5.296450e-02 1.302034e+00 6.310284e+00 156 151 140
-2.913820e+00 1.589073e+00 1.046552e+01 95 83 59
-2.704743e+00 1.609632e+00 1.059479e+01 19 16 17
-2.652485e+00 1.946768e+00 1.069299e+01 45 46 31
-2.299673e+00 2.321535e+00 9.919005e+00 161 163 175
-2.389718e+00 5.885152e-01 1.281633e+01 162 161 126
-9.697367e-01 -1.768200e-01 1.112979e+01 56 49 67
-9.697367e-01 -1.768200e-01 1.112979e+01 56 49 67
-1.231183e+00 -1.296910e-01 1.109692e+01 128 133 101
-7.196534e-01 -1.634222e-01 1.099284e+01 59 48 45
-2.650951e-01 -1.465030e-01 1.078074e+01 60 53 43
-1.169682e+00 -6.304032e-02 1.086451e+01 151 152 146
-7.547813e-01 -3.109447e-02 1.057521e+01 160 159 170
-1.986967e+00 1.153841e-01 1.060276e+01 72 71 96
7.404538e-02 5.406278e-02 1.002048e+01 142 139 127
-3.308570e-01 1.061514e-01 1.008023e+01 147 156 166
-1.231937e+00 1.787082e-01 1.009877e+01 50 52 70
-1.612588e+00 2.202597e-01 1.011072e+01 62 60 83
-1.599480e+00 2.233499e-01 1.011418e+01 141 144 126
-8.249229e-01 1.680059e-01 9.989253e+00 162 163 174
-9.109240e-01 1.827859e-01 9.978349e+00 81 85 114
-1.547275e+00 2.605614e-01 9.973215e+00 48 49 62
-1.174501e-01 1.663827e-01 9.811957e+00 88 101 116
-1.542278e+00 2.716813e-01 9.938612e+00 62 65 87
-4.496509e+00 4.494818e-01 1.009701e+01 81 75 83
-5.502374e-01 2.288733e-01 9.788868e+00 160 161 166
-1.182403e+00 3.116929e-01 9.746480e+00 153 153 154
-1.547929e+00 3.363417e-01 9.747405e+00 74 73 87
-5.064774e+00 5.310339e-01 9.969724e+00 111 100 99
-1.346548e+00 3.396711e-01 9.657861e+00 153 158 155
-5.275804e+00 5.681345e-01 9.900880e+00 134 136 106
-5.275804e+00 5.681345e-01 9.900880e+00 134 136 106
-1.372001e+00 3.576248e-01 9.625265e+00 79 81 106
-1.400707e+00 3.615214e-01 9.625737e+00 82 84 103
-5.266721e+00 5.732620e-01 9.875035e+00 142 137 112
-5.266721e+00 5.732620e-01 9.875035e+00 142 137 112
-1.260815e+00 3.923311e-01 9.488404e+00 158 165 159
-4.392691e+00 5.745689e-01 9.660522e+00 138 137 116
-4.392691e+00 5.745689e-01 9.660522e+00 138 137 116
-4.337627e+00 5.885608e-01 9.699064e+00 79 75 79
-2.990418e+00 6.368315e-01 1.014232e+01 65 63 50
2.823280e-01 3.301076e-01 9.200776e+00 121 133 155
2.993881e-01 3.343651e-01 9.152819e+00 167 169 181
-1.008324e+00 4.392120e-01 9.303860e+00 150 147 134
-5.588343e-01 4.613398e-01 9.060078e+00 74 78 87
-4.448137e+00 6.779658e-01 9.399392e+00 154 149 137
-4.176657e-01 4.694873e-01 8.996679e+00 145 147 143
-5.320365e+00 7.189256e-01 9.380506e+00 142 140 113
-3.933085e+00 6.671481e-01 9.322971e+00 82 77 85
-4.466104e+00 6.897006e-01 9.341165e+00 75 75 86
-3.963152e+00 6.929650e-01 9.298502e+00 156 159 145
-4.439055e+00 7.070912e-01 9.284796e+00 99 96 97
-4.327792e+00 7.278072e-01 9.239480e+00 155 154 148
-9.050457e-01 5.525560e-01 8.844801e+00 76 87 106
-2.613329e+00 9.074027e-01 1.024550e+01 66 60 48
-4.056815e+00 7.822751e-01 9.015006e+00 153 158 149
-2.874611e+00 9.766430e-01 1.033823e+01 93 87 61
-4.109170e+00 8.400308e-01 8.833235e+00 127 129 138
-3.002973e+00 1.004347e+00 1.025364e+01 94 87 62
-4.164891e+00 8.611493e-01 8.758512e+00 168 167 162
-4.397954e+00 8.763430e-01 8.792710e+00 162 163 152
-4.402860e+00 9.044008e-01 8.677656e+00 116 115 121
-4.402860e+00 9.044008e-01 8.677656e+00 116 115 121
-3.710259e+00 8.857443e-01 8.622621e+00 109 118 146
-2.974510e+00 1.065235e+00 1.028964e+01 46 43 34
-4.142308e+00 9.125850e-01 8.594529e+00 176 174 175
-1.952661e+00 8.186095e-01 8.373449e+00 112 122 132
-2.798741e+00 1.159233e+00 1.045406e+01 94 83 60
-2.937528e+00 1.170507e+00 1.031262e+01 59 50 43
-2.906523e+00 1.178954e+00 1.035266e+01 97 86 68
-3.536886e+00 9.982204e-01 8.226943e+00 105 115 130
-3.355302e+00 9.995272e-01 8.160547e+00 79 88 97
-3.630341e+00 1.014065e+00 8.220360e+00 104 118 140
-3.630341e+00 1.014065e+00 8.220360e+00 104 118 140
-3.404313e+00 1.004601e+00 8.167948e+00 82 91 103
-3.461365e+00 1.006258e+00 8.181739e+00 86 100 116
-3.618720e+00 1.015405e+00 8.194693e+00 113 123 145
-3.618720e+00 1.015405e+00 8.194693e+00 113 123 145
-3.723434e+00 1.019155e+00 8.211245e+00 117 124 149
-3.800825e+00 1.035123e+00 8.165027e+00 111 119 136
-2.978588e+00 1.207794e+00 1.030930e+01 22 17 18
-2.978588e+00 1.207794e+00 1.030930e+01 22 17 18
-3.483922e+00 1.024991e+00 8.129697e+00 100 102 122
-3.525393e+00 1.033994e+00 8.105676e+00 94 113 127
-3.855084e+00 1.062694e+00 8.094305e+00 113 121 140
-3.807143e+00 1.085016e+00 8.012706e+00 104 112 123
-7.057540e-01 9.791474e-01 7.456690e+00 84 93 102
-4.145969e+00 1.126884e+00 7.876140e+00 124 125 148
-4.051479e+00 1.169607e+00 7.851032e+00 119 126 140
-6.731636e+00 1.327152e+00 7.606362e+00 93 83 66
-6.731636e+00 1.327152e+00 7.606362e+00 93 83 66
-4.508933e+00 1.264363e+00 7.632154e+00 124 121 120
-6.689362e+00 1.353138e+00 7.537407e+00 49 42 27
-6.629443e+00 1.354728e+00 7.465022e+00 53 46 28
-1.419307e-01 1.161425e+00 6.715564e+00 115 113 97
-2.802392e-01 1.206547e+00 6.648277e+00 120 117 116
-1.072223e-01 1.225973e+00 6.520548e+00 104 99 83
-1.961427e-01 1.265704e+00 6.406602e+00 105 105 96
-2.796558e+00 1.505060e+00 1.046622e+01 43 39 32
-2.793864e+00 1.540492e+00 1.051679e+01 90 81 65
-2.865603e+00 1.625103e+00 1.048380e+01 47 41 35
-2.855283e+00 1.634460e+00 1.048470e+01 85 77 58
-2.918202e+00 1.637799e+00 1.047133e+01 33 31 28
-2.868440e+00 1.660903e+00 1.047810e+01 95 87 72
-2.681528e+00 1.868390e+00 1.065101e+01 47 47 37
-2.794298e+00 1.896242e+00 1.060281e+01 61 61 53
-2.713978e+00 1.964557e+00 1.064537e+01 97 90 75
-2.713935e+00 1.962910e+00 1.066136e+01 97 90 75
-2.759852e+00 1.997140e+00 1.062972e+01 20 16 12
-2.808741e+00 2.000311e+00 1.059137e+01 90 89 73
-2.697430e+00 2.035564e+00 1.068022e+01 19 16 11
-2.697430e+00 2.035564e+00 1.068022e+01 19 16 11
-2.599439e+00 2.100471e+00 1.072026e+01 139 132 126
-2.101303e+00 -6.919262e-02 1.128348e+01 114 108 87
-3.148142e+00 5.199716e-02 1.124259e+01 152 148 128
-7.153318e-01 -1.538634e-01 1.099448e+01 134 134 126
2.776191e+00 -3.908364e+00 1.272607e+00 137 135 143
-1.932370e+00 2.102125e-02 1.089285e+01 76 70 96
-4.276609e-01 -8.758679e-02 1.079297e+01 64 54 79
-1.979470e+00 5.029088e-02 1.084149e+01 141 145 131
-2.912809e-01 -1.307767e-02 1.048814e+01 140 141 135
-1.064234e+00 2.496125e-02 1.048404e+01 146 145 152
-2.797136e-01 -1.107565e-02 1.046253e+01 95 91 103
-1.484752e+00 7.007599e-02 1.050572e+01 137 133 127
-1.688349e+00 1.223095e-01 1.048660e+01 75 76 101
-4.269000e+00 3.234796e-01 1.057918e+01 96 95 74
-1.634414e+00 1.510099e-01 1.033070e+01 142 142 132
-1.242398e-01 6.886983e-02 1.014068e+01 103 103 110
-1.242398e-01 6.886983e-02 1.014068e+01 103 103 110
1.178873e-01 9.929328e-02 9.931310e+00 139 138 133
-8.333439e-01 1.689577e-01 9.978384e+00 159 158 158
-8.217809e-01 1.723037e-01 9.951175e+00 102 108 121
-1.676578e+00 2.521499e-01 1.000484e+01 101 98 107
-5.078085e+00 5.224163e-01 9.989747e+00 112 106 101
-3.200857e-02 2.365846e-01 9.613286e+00 112 115 130
-5.167707e+00 5.478112e-01 9.929758e+00 106 96 97
-4.269890e+00 5.497594e-01 9.733208e+00 77 70 71
3.674556e-01 2.919055e-01 9.275448e+00 127 136 143
4.010879e-01 2.761350e-01 9.212893e+00 127 136 143
-7.805211e+00 -5.700670e-01 3.646432e+00 70 65 53
-4.373159e+00 5.700425e-01 9.688067e+00 64 59 57
-4.373159e+00 5.700425e-01 9.688067e+00 64 59 57
-7.828962e+00 -5.543899e-01 3.612149e+00 143 147 120
-4.454849e+00 5.992185e-01 9.621031e+00 66 64 71
-4.005675e+00 6.457973e-01 9.404912e+00 80 70 78
-3.920719e+00 6.559803e-01 9.364685e+00 85 84 72
-1.196666e+00 5.449832e-01 9.100134e+00 104 105 117
-3.955388e+00 6.874354e-01 9.264472e+00 80 80 83
-4.528202e+00 7.240653e-01 9.212616e+00 152 148 145
-1.053503e+00 5.664148e-01 8.882406e+00 100 116 133
-4.472813e+00 7.379293e-01 9.176115e+00 86 86 85
9.690375e-01 4.684873e-01 8.516580e+00 154 166 188
-4.029469e+00 7.769653e-01 9.020808e+00 165 162 166
6.333719e-01 5.496325e-01 8.364777e+00 153 164 189
-2.860991e+00 9.696785e-01 1.031702e+01 92 80 61
-4.275077e-01 6.371814e-01 8.503031e+00 77 78 83
-2.864049e+00 1.001284e+00 1.031774e+01 58 49 40
-2.991254e+00 9.915850e-01 1.019942e+01 95 85 60
-3.891182e+00 8.441298e-01 8.805571e+00 105 109 125
-5.636837e+00 9.293195e-01 9.002165e+00 142 138 111
-3.548584e+00 8.510404e-01 8.702289e+00 103 104 122
-3.692374e+00 8.702932e-01 8.673363e+00 97 104 129
-4.083640e+00 8.845704e-01 8.686661e+00 98 105 117
-4.604710e-01 7.026167e-01 7.919268e+00 164 163 158
-4.074275e+00 9.747639e-01 8.432316e+00 182 183 188
-4.251595e+00 9.935487e-01 8.326044e+00 175 173 180
-2.831751e+00 1.160997e+00 1.037019e+01 81 72 53
-2.990641e+00 1.161980e+00 1.030352e+01 93 88 66
-3.460595e+00 9.849966e-01 8.255661e+00 109 112 119
-3.460595e+00 9.849966e-01 8.255661e+00 109 112 119
-3.343042e+00 9.858630e-01 8.199860e+00 158 157 158
-3.534033e+00 1.017120e+00 8.241966e+00 180 177 184
-3.672037e+00 1.021356e+00 8.169482e+00 127 132 154
-3.769909e+00 1.087054e+00 8.007876e+00 170 173 178
-3.887813e+00 1.091821e+00 8.004846e+00 173 172 170
-3.369983e+00 1.078195e+00 7.956067e+00 100 106 101
-3.439601e+00 1.085481e+00 7.914308e+00 162 159 160
-3.406238e+00 1.088316e+00 7.923024e+00 90 99 100
-3.418554e+00 1.096099e+00 7.900271e+00 165 167 167
-3.439229e+00 1.098339e+00 7.883618e+00 102 105 106
-3.805956e+00 1.114382e+00 7.952039e+00 113 119 135
-3.592295e+00 1.113867e+00 7.909273e+00 169 173 171
-3.736143e+00 1.166619e+00 7.784165e+00 119 122 133
-4.384158e+00 1.195847e+00 7.852119e+00 131 129 134
-4.579407e+00 1.217165e+00 7.754252e+00 133 132 135
-3.893378e+00 1.198911e+00 7.746566e+00 173 178 186
-3.541313e+00 1.192738e+00 7.639201e+00 166 169 172
-2.262577e-01 1.084526e+00 6.971529e+00 129 134 128
-1.541695e+00 1.145099e+00 7.230808e+00 138 144 150
1.758333e-01 1.087965e+00 6.862541e+00 118 114 97
1.758333e-01 1.087965e+00 6.862541e+00 118 114 97
-3.544580e+00 1.250929e+00 7.490463e+00 142 148 162
-4.713761e+00 1.291924e+00 7.588666e+00 157 162 168
7.577170e-02 1.109624e+00 6.815014e+00 107 105 86
1.226259e-01 1.160069e+00 6.651827e+00 113 111 94
-6.408383e+00 1.449981e+00 7.194530e+00 99 88 66
-6.552043e+00 1.453844e+00 7.162603e+00 89 81 64
-5.933339e+00 1.560896e+00 6.822567e+00 58 54 45
-2.940822e+00 1.599925e+00 1.042295e+01 89 79 61
-2.772994e+00 1.637171e+00 1.056825e+01 94 82 65
-2.777808e+00 1.705001e+00 1.056366e+01 29 19 12
-2.674775e+00 1.952567e+00 1.066391e+01 88 84 73
-2.837651e+00 1.996384e+00 1.058081e+01 19 18 10
-2.886959e+00 2.040888e+00 1.056083e+01 79 78 67
-2.886959e+00 2.040888e+00 1.056083e+01 79 78 67
-2.745435e+00 2.051955e+00 1.064704e+01 25 23 11
-2.745435e+00 2.051955e+00 1.064704e+01 25 23 11
-2.906065e+00 2.073021e+00 1.056414e+01 80 76 65
-2.810675e+00 2.068059e+00 1.062487e+01 88 86 70
-2.880479e+00 2.073538e+00 1.058352e+01 97 95 82
-2.880479e+00 2.073538e+00 1.058352e+01 97 95 82
-2.610027e+00 2.093591e+00 1.073563e+01 47 43 31
-2.619943e+00 1.843109e+00 9.817896e+00 22 22 17
-3.859769e+00 2.363929e-01 1.077174e+01 99 97 77
-1.311533e+00 5.094721e-01 8.814120e+00 177 175 180
-2.664778e+00 6.009635e-01 1.021029e+01 99 78 57
-2.957821e+00 8.919162e-01 1.021724e+01 50 50 38
-1.452001e+00 -2.123482e-02 1.094068e+01 160 157 152
-1.270528e+00 2.306793e-03 1.070954e+01 159 158 156
-2.191571e+00 -1.467885e-02 1.111060e+01 41 34 41
-1.610499e-01 4.514425e-01 8.914360e+00 117 124 137
-4.049829e+00 3.090585e-01 1.076175e+01 160 156 145
-2.560569e+00 4.799075e-01 9.926569e+00 31 27 27
-1.357083e+00 -2.088382e-02 1.101847e+01 160 157 152
-8.122651e-01 3.474593e-01 9.527747e+00 176 177 182
-3.776518e+00 2.424739e-01 1.078918e+01 110 67 50
-1.042441e+00 3.941135e-01 9.291130e+00 179 178 184
-1.041035e+00 3.921113e-01 9.275776e+00 179 178 184
-8.249058e-01 3.991742e-01 9.089907e+00 120 131 137
-4.059279e+00 3.221968e-01 1.074859e+01 157 153 142
-2.227810e+00 1.729965e+00 9.699801e+00 28 30 25
-1.529658e+00 -2.322629e-02 1.106390e+01 64 57 70
-1.529658e+00 -2.322629e-02 1.106390e+01 64 57 70
-2.267558e+00 -4.400884e-02 1.133230e+01 150 147 132
-4.403012e-01 7.315038e-02 1.039425e+01 159 157 158
-5.047548e-01 8.854462e-02 1.036179e+01 159 157 160
-5.047548e-01 8.854462e-02 1.036179e+01 159 157 160
-1.133302e+00 2.010425e-01 9.997522e+00 158 157 155
-7.438570e-01 2.524797e-01 9.773580e+00 170 170 172
-9.804017e-01 3.977630e-01 9.495971e+00 180 179 184
-1.173229e+00 4.455113e-01 9.317195e+00 178 178 179
-2.694559e+00 1.768085e+00 1.058967e+01 18 19 14
-2.694559e+00 1.768085e+00 1.058967e+01 18 19 14
-1.478227e+00 -2.755046e-02 1.108652e+01 156 153 144
-9.692419e-01 5.154811e-04 1.071595e+01 162 161 159
-4.504580e-01 2.881655e-02 1.048262e+01 79 73 113
-4.504580e-01 2.881655e-02 1.048262e+01 79 73 113
-3.157211e+00 1.794590e-02 1.150312e+01 151 145 129
-1.229234e+00 4.258543e-02 1.063080e+01 160 159 155
-1.949583e-01 1.205315e-01 1.001716e+01 165 165 170
-5.787975e-01 1.459515e-01 1.008959e+01 164 162 165
-5.787975e-01 1.459515e-01 1.008959e+01 164 162 165
-3.916154e-01 1.582850e-01 9.938536e+00 162 161 162
-5.827331e-01 2.105964e-01 9.920320e+00 164 163 162
-1.779283e+00 1.684533e-01 1.032313e+01 171 169 172
-9.669825e-01 2.304090e-01 9.885009e+00 168 168 170
-1.193940e+00 4.937932e-01 9.157815e+00 81 91 100
-3.051817e+00 3.952723e-01 1.002232e+01 31 32 26
-2.976800e+00 4.605398e-01 1.009594e+01 93 80 59
-2.736318e+00 1.561408e+00 1.052010e+01 107 93 72
-2.660863e+00 1.914379e+00 1.066563e+01 17 18 13
-2.593282e+00 2.075621e+00 1.068780e+01 93 78 57
-2.133694e+00 -3.966246e-02 1.126231e+01 155 151 140
-2.336816e+00 -1.479805e-02 1.127799e+01 156 149 143
-1.017117e+00 2.034669e-03 1.064858e+01 161 161 159
-3.138578e+00 -1.666384e-02 1.155209e+01 18 16 17
-1.832744e+00 4.151838e-02 1.094034e+01 161 158 151
-2.591380e-01 1.002687e-01 1.027899e+01 161 162 167
-2.979598e+00 4.738213e-02 1.138288e+01 155 148 130
-1.239407e+00 8.244025e-02 1.051775e+01 109 107 115
-1.705536e+00 7.328834e-02 1.070923e+01 91 93 106
-1.368379e+00 8.148216e-02 1.051157e+01 156 155 150
-8.347455e-02 1.235869e-01 9.969566e+00 166 167 172
-2.156278e-01 1.727258e-01 1.001638e+01 60 72 104
-2.156278e-01 1.727258e-01 1.001638e+01 60 72 104
-9.369416e-01 1.984570e-01 9.981976e+00 84 81 100
-1.584978e+00 2.146598e-01 1.007400e+01 60 58 55
-3.976550e-01 2.907271e-01 9.478300e+00 87 100 117
-3.976550e-01 2.907271e-01 9.478300e+00 87 100 117
-1.177735e+00 2.698294e-01 9.799479e+00 166 164 165
-1.180215e+00 2.747529e-01 9.808413e+00 166 164 165
-9.022226e-01 3.175609e-01 9.555222e+00 61 73 103
-1.319716e+00 3.033673e-01 9.725172e+00 163 161 159
-1.382419e+00 4.304209e-01 9.334480e+00 178 177 183
-2.668946e+00 7.246860e-01 1.024977e+01 58 50 37
-4.889897e+00 5.062145e-01 1.014087e+01 61 56 53
-5.054534e+00 5.989191e-01 1.015938e+01 110 104 96
-5.054534e+00 5.989191e-01 1.015938e+01 110 104 96
-2.637013e+00 1.008114e+00 1.037381e+01 42 35 27
-2.637013e+00 1.008114e+00 1.037381e+01 42 35 27
1.658600e-01 -2.804131e-02 1.034363e+01 154 159 168
1.090438e-01 -1.195421e-02 1.031904e+01 158 163 164
4.466547e-02 -8.113025e-03 1.035206e+01 157 159 171
4.466547e-02 -8.113025e-03 1.035206e+01 157 159 171
4.466547e-02 -8.113025e-03 1.035206e+01 157 159 171
1.925521e-02 1.114483e-02 1.031658e+01 161 164 171
-3.116656e+00 -5.535250e-03 1.149486e+01 24 17 24
-3.116656e+00 -5.535250e-03 1.149486e+01 24 17 24
