ply
format ascii 1.0
element face 0
property list uchar int vertex_indices
element vertex 941
property float x
property float y
property float z
property uchar diffuse_red
property uchar diffuse_green
property uchar diffuse_blue
end_header
-2.777999e+00 1.839809e+00 1.128803e+01 58 55 52
8.854077e-01 7.611236e-01 8.806369e+00 136 135 116
-2.763153e+00 1.849273e+00 1.129776e+01 25 24 21
8.998726e-01 7.782265e-01 8.858730e+00 95 100 53
4.885244e-01 1.211516e+00 7.829868e+00 108 93 70
9.902557e-01 7.585573e-01 8.915471e+00 69 80 52
1.103034e+00 7.339963e-01 8.856524e+00 143 146 120
-2.664709e+00 1.835657e+00 1.134337e+01 59 57 50
-2.553241e+00 1.804327e+00 1.138611e+01 59 56 49
-2.749950e+00 2.152035e+00 1.099606e+01 133 109 96
-2.669687e+00 2.140676e+00 1.090495e+01 136 115 96
-2.669687e+00 2.140676e+00 1.090495e+01 136 115 96
-2.731570e+00 2.164982e+00 1.095266e+01 134 112 91
-2.665040e+00 2.152039e+00 1.091097e+01 135 119 101
-2.583018e+00 2.184477e+00 1.074272e+01 74 32 28
-2.685481e+00 2.207014e+00 1.081846e+01 131 110 89
-2.623837e+00 2.189580e+00 1.083796e+01 108 78 70
-2.660004e+00 2.217128e+00 1.077499e+01 133 110 94
-2.578855e+00 2.203001e+00 1.074099e+01 134 118 96
-2.636198e+00 2.084017e+00 1.141475e+01 23 24 15
-2.513192e+00 2.141472e+00 1.121052e+01 168 160 156
-2.403884e+00 2.205070e+00 1.097064e+01 172 164 157
-2.459811e+00 2.225203e+00 1.098007e+01 172 164 157
-2.443124e+00 2.236895e+00 1.093602e+01 154 150 149
-2.443124e+00 2.236895e+00 1.093602e+01 154 150 149
-2.403061e+00 2.260472e+00 1.085385e+01 174 169 165
-4.290194e+00 9.229898e-01 9.471452e+00 87 78 90
-4.259380e+00 8.865724e-01 9.562744e+00 79 77 84
-4.203902e+00 7.351781e-01 1.004045e+01 70 64 96
-4.228022e+00 8.778298e-01 9.573406e+00 76 71 95
-4.166848e+00 5.968962e-01 1.056275e+01 81 77 97
-4.178152e+00 6.988873e-01 1.015543e+01 139 146 122
-4.178152e+00 6.988873e-01 1.015543e+01 139 146 122
-4.178029e+00 7.007490e-01 1.014089e+01 69 62 76
-4.220923e+00 8.800876e-01 9.560874e+00 71 64 92
-4.137874e+00 5.870985e-01 1.051127e+01 140 147 114
-4.176508e+00 8.659305e-01 9.599328e+00 76 71 85
-4.107966e+00 5.837817e-01 1.051513e+01 64 54 78
-4.187217e+00 9.183050e-01 9.444527e+00 83 73 85
-4.115918e+00 5.852154e-01 1.057641e+01 150 153 136
-4.122390e+00 7.086656e-01 1.006368e+01 140 144 123
-4.151012e+00 8.589493e-01 9.612395e+00 76 76 71
-4.150518e+00 8.675225e-01 9.589078e+00 81 79 80
-4.127689e+00 7.222954e-01 1.013297e+01 149 154 134
-4.107151e+00 7.129258e-01 1.007362e+01 142 145 124
-4.107151e+00 7.129258e-01 1.007362e+01 142 145 124
-4.154501e+00 9.119184e-01 9.440171e+00 152 156 136
-4.157937e+00 9.468576e-01 9.366408e+00 136 147 117
-4.141079e+00 9.112990e-01 9.452878e+00 149 156 138
-4.141079e+00 9.112990e-01 9.452878e+00 149 156 138
-4.094686e+00 8.472039e-01 9.639100e+00 64 61 67
-4.117508e+00 8.706127e-01 9.641076e+00 144 154 129
-4.087594e+00 8.693699e-01 9.562589e+00 67 63 76
-4.032709e+00 6.711842e-01 1.021369e+01 60 58 64
-4.050506e+00 8.916811e-01 9.490496e+00 147 157 132
-4.050506e+00 8.916811e-01 9.490496e+00 147 157 132
-4.036136e+00 8.404945e-01 9.659567e+00 149 155 128
-4.037517e+00 8.695536e-01 9.562615e+00 83 79 114
-3.989162e+00 6.837487e-01 1.015920e+01 148 151 135
-3.989877e+00 6.934740e-01 1.013482e+01 46 43 47
-3.987468e+00 6.924918e-01 1.014482e+01 149 151 134
-4.024982e+00 8.843267e-01 9.507892e+00 150 154 127
-3.975449e+00 6.872573e-01 1.015453e+01 57 53 68
-3.973502e+00 7.054856e-01 1.014783e+01 149 155 132
-3.937712e+00 6.750868e-01 1.016302e+01 144 152 137
-3.938619e+00 6.917049e-01 1.015000e+01 156 158 153
-3.928819e+00 6.813809e-01 1.016395e+01 79 75 103
-3.950853e+00 8.912472e-01 9.469199e+00 78 64 89
-3.940259e+00 8.642980e-01 9.544016e+00 149 158 136
-3.967445e+00 8.861979e-01 9.562031e+00 149 158 136
-3.890135e+00 7.906530e-01 9.786902e+00 160 163 136
-3.893368e+00 9.496564e-01 9.258420e+00 51 42 46
-3.873629e+00 8.853235e-01 9.484244e+00 52 43 49
-3.850624e+00 9.502092e-01 9.247812e+00 163 163 170
-3.864149e+00 9.690391e-01 9.246925e+00 62 55 88
-3.804578e+00 8.748359e-01 9.508942e+00 59 52 66
-3.894521e+00 1.254226e+00 8.454982e+00 127 143 96
-3.694634e+00 8.456541e-01 9.588706e+00 159 161 140
-3.775107e+00 1.225315e+00 8.505950e+00 149 144 146
-3.139897e+00 -2.926474e-01 1.265110e+01 67 69 96
-3.139897e+00 -2.926474e-01 1.265110e+01 67 69 96
-3.181923e+00 -2.124000e-01 1.250149e+01 35 38 50
-3.609427e+00 1.033343e+00 8.945763e+00 161 160 153
-3.609427e+00 1.033343e+00 8.945763e+00 161 160 153
-3.106068e+00 -1.960809e-01 1.247664e+01 35 40 59
-3.061155e+00 -2.160520e-01 1.248595e+01 49 47 79
-3.072457e+00 -1.633071e-01 1.239262e+01 47 47 84
-3.535907e+00 1.173239e+00 8.598883e+00 76 64 90
-3.518023e+00 1.172266e+00 8.596728e+00 148 156 138
-3.427404e+00 1.024042e+00 9.002643e+00 169 165 169
-2.896508e+00 -2.561365e-01 1.257354e+01 158 161 138
-2.936513e+00 -1.744066e-01 1.240712e+01 24 26 37
-3.046369e+00 -1.938872e-02 1.221769e+01 41 51 50
-2.885068e+00 -1.988178e-01 1.246148e+01 36 41 55
-2.817312e+00 -2.311821e-01 1.254199e+01 167 169 162
-2.815540e+00 -2.140508e-01 1.251571e+01 168 160 169
-2.759553e+00 -2.750034e-01 1.262285e+01 43 43 63
-2.971557e+00 4.564152e-02 1.202573e+01 51 57 51
-2.844794e+00 -1.109256e-01 1.223382e+01 155 162 138
-3.342368e+00 1.180071e+00 8.519465e+00 76 68 92
-3.341680e+00 1.179482e+00 8.521584e+00 76 68 92
-3.270079e+00 1.114415e+00 8.686386e+00 64 66 92
-2.696539e+00 -2.432903e-01 1.254510e+01 32 40 49
-2.710232e+00 -1.324165e-01 1.228317e+01 37 39 57
-3.147190e+00 1.008890e+00 8.968197e+00 57 54 76
-3.105560e+00 1.035668e+00 8.874326e+00 78 74 110
-2.911054e+00 4.783779e-01 1.085006e+01 108 101 91
-2.921856e+00 5.707859e-01 1.069167e+01 87 60 55
-3.001619e+00 1.147546e+00 8.536067e+00 79 75 106
-3.001619e+00 1.147546e+00 8.536067e+00 79 75 106
-2.826528e+00 4.913657e-01 1.089369e+01 104 100 89
-2.962690e+00 1.137835e+00 8.555391e+00 79 74 109
-2.959335e+00 1.163518e+00 8.456539e+00 72 71 86
-2.870929e+00 1.113830e+00 8.594121e+00 69 65 84
-2.859951e+00 6.633124e-01 1.058279e+01 155 134 106
-2.855911e+00 1.123326e+00 8.573635e+00 71 68 98
-2.855911e+00 1.123326e+00 8.573635e+00 71 68 98
-2.839117e+00 7.521293e-01 1.058005e+01 147 133 116
-2.812741e+00 7.502747e-01 1.052049e+01 121 56 38
-2.843422e+00 7.628483e-01 1.059358e+01 75 59 38
-2.732243e+00 7.384033e-01 1.034890e+01 74 53 36
-2.605829e+00 7.114369e-01 1.008584e+01 57 45 48
-2.643406e+00 1.060424e+00 8.700507e+00 90 85 122
-2.036410e+00 -2.135153e-01 1.237309e+01 166 160 158
-2.860938e+00 7.987752e-01 1.064725e+01 75 50 30
-2.030843e+00 -1.383207e-01 1.212337e+01 46 45 63
-2.030843e+00 -1.383207e-01 1.212337e+01 46 45 63
-2.691397e+00 1.281304e+00 8.017533e+00 55 54 70
-2.837364e+00 8.268494e-01 1.060628e+01 133 126 110
-2.893023e+00 8.497961e-01 1.075892e+01 159 132 112
-2.550280e+00 1.045471e+00 8.740032e+00 168 178 167
-2.563495e+00 1.062699e+00 8.700031e+00 52 56 73
-2.552048e+00 1.044350e+00 8.756001e+00 71 67 86
-2.532631e+00 1.050270e+00 8.731886e+00 70 69 102
-2.617736e+00 1.275159e+00 8.096992e+00 59 52 89
-2.617736e+00 1.275159e+00 8.096992e+00 59 52 89
-2.569792e+00 1.238706e+00 8.207647e+00 72 69 96
-2.569792e+00 1.238706e+00 8.207647e+00 72 69 96
-1.898840e+00 -1.121623e-01 1.203796e+01 48 56 60
-1.852138e+00 -1.795716e-01 1.220318e+01 49 52 57
-1.911763e+00 -7.100988e-02 1.191159e+01 174 171 169
-2.564409e+00 8.323213e-01 1.005869e+01 140 117 96
-2.566354e+00 8.416070e-01 1.006938e+01 98 61 53
-2.532094e+00 1.255750e+00 8.147003e+00 62 61 77
-2.635912e+00 8.710227e-01 1.021564e+01 64 48 39
-1.958466e+00 9.268442e-02 1.155564e+01 173 173 173
-2.462323e+00 1.221068e+00 8.231612e+00 94 87 118
-2.515518e+00 1.325362e+00 7.934250e+00 59 58 66
-2.712435e+00 9.165507e-01 1.037255e+01 141 120 106
-2.511915e+00 1.309152e+00 8.010586e+00 164 159 165
-2.511915e+00 1.309152e+00 8.010586e+00 164 159 165
-2.510488e+00 1.311336e+00 7.993541e+00 76 70 89
-2.362706e+00 1.020786e+00 8.811989e+00 178 177 178
-2.362706e+00 1.020786e+00 8.811989e+00 178 177 178
-2.355826e+00 1.007913e+00 8.854762e+00 62 66 92
-1.772821e+00 -1.013886e-01 1.198617e+01 43 46 50
-1.827102e+00 3.045676e-02 1.156490e+01 180 174 175
-2.339686e+00 1.012899e+00 8.828442e+00 58 68 82
-2.455039e+00 1.298732e+00 8.024049e+00 72 64 103
-2.693613e+00 9.467617e-01 1.033737e+01 153 126 107
-1.807189e+00 1.001636e-01 1.131301e+01 36 38 44
-2.296524e+00 9.959691e-01 8.890354e+00 75 75 99
-2.887047e+00 9.566095e-01 1.098566e+01 96 91 87
-2.378300e+00 1.295207e+00 8.009041e+00 57 54 62
-2.737082e+00 9.979994e-01 1.046504e+01 135 118 96
-2.307913e+00 1.198795e+00 8.263693e+00 52 54 77
-2.293151e+00 1.179687e+00 8.315367e+00 67 69 90
-2.744961e+00 1.007511e+00 1.048390e+01 137 118 103
-2.336546e+00 1.279815e+00 8.038889e+00 164 163 145
-1.652540e+00 -5.722549e-03 1.162121e+01 52 51 62
-1.652540e+00 -5.722549e-03 1.162121e+01 52 51 62
-1.717790e+00 1.575725e-01 1.113619e+01 157 156 162
-2.283148e+00 1.260579e+00 8.006558e+00 62 54 77
-2.283148e+00 1.260579e+00 8.006558e+00 62 54 77
-2.326252e+00 1.291502e+00 8.035176e+00 70 68 82
-1.515490e+00 -2.104314e-01 1.219080e+01 165 162 164
-1.529097e+00 -1.709259e-01 1.207725e+01 162 160 157
-2.735751e+00 1.026001e+00 1.048088e+01 137 118 99
-2.926536e+00 1.050814e+00 1.098324e+01 98 75 51
-2.786760e+00 1.044872e+00 1.058771e+01 143 112 93
-2.673892e+00 1.025487e+00 1.034325e+01 129 104 84
-2.595132e+00 1.011649e+00 1.019428e+01 162 134 115
-2.608398e+00 1.019910e+00 1.022513e+01 93 71 58
-2.608537e+00 1.019461e+00 1.022462e+01 93 71 58
-1.560067e+00 -2.453599e-02 1.168362e+01 172 171 174
-2.590392e+00 1.028041e+00 1.019549e+01 125 92 68
-2.173193e+00 1.168106e+00 8.323132e+00 65 66 91
-2.178739e+00 1.175181e+00 8.317814e+00 60 67 81
-2.208289e+00 1.253781e+00 8.099988e+00 56 55 62
-2.875234e+00 1.096493e+00 1.084186e+01 98 72 39
-2.827460e+00 1.089808e+00 1.071876e+01 147 117 93
-2.119348e+00 1.138325e+00 8.397204e+00 65 63 97
-1.555076e+00 1.457369e-01 1.110711e+01 51 56 56
-1.548496e+00 1.474041e-01 1.108973e+01 167 165 169
-2.557797e+00 1.054375e+00 1.016052e+01 64 49 43
-2.080156e+00 1.143684e+00 8.364040e+00 56 62 79
-1.534992e+00 1.574813e-01 1.110051e+01 160 166 169
-2.112271e+00 1.237309e+00 8.135956e+00 69 73 88
-2.112271e+00 1.237309e+00 8.135956e+00 69 73 88
-2.017327e+00 1.126817e+00 8.394441e+00 58 63 88
-1.454026e+00 1.382800e-01 1.110969e+01 161 161 164
-2.840775e+00 1.154501e+00 1.080125e+01 140 126 103
-2.102292e+00 1.335014e+00 7.847081e+00 82 63 91
-2.766563e+00 1.152278e+00 1.060849e+01 69 43 31
-2.630767e+00 1.150979e+00 1.024565e+01 133 106 92
-1.958084e+00 1.181591e+00 8.205820e+00 162 164 153
-2.769093e+00 1.169438e+00 1.062431e+01 87 51 35
-2.039281e+00 1.429541e+00 7.421788e+00 85 79 74
-2.550130e+00 1.161096e+00 1.018146e+01 125 103 69
-1.857230e+00 1.094502e+00 8.482752e+00 60 70 85
-2.520440e+00 1.163803e+00 1.013578e+01 98 79 53
-2.812723e+00 1.220184e+00 1.074884e+01 103 91 75
-2.504043e+00 1.170655e+00 1.011377e+01 96 60 41
-1.923405e+00 1.307464e+00 7.930398e+00 169 162 162
-1.659048e+00 8.971669e-01 9.040137e+00 127 132 130
-1.659048e+00 8.971669e-01 9.040137e+00 127 132 130
-9.879270e-01 -1.828492e-01 1.195771e+01 171 172 170
-2.844696e+00 1.266826e+00 1.085700e+01 78 80 66
-2.823210e+00 1.262631e+00 1.082617e+01 77 80 58
-2.806385e+00 1.275142e+00 1.072124e+01 27 29 18
-2.729456e+00 1.258947e+00 1.057696e+01 108 93 66
-9.870251e-01 -3.612830e-02 1.148028e+01 171 172 175
-9.870251e-01 -3.612830e-02 1.148028e+01 171 172 175
-2.820997e+00 1.276833e+00 1.079131e+01 88 94 69
-2.492823e+00 1.237213e+00 1.010344e+01 109 87 60
-2.784397e+00 1.292124e+00 1.072031e+01 40 42 31
-1.584428e+00 9.697547e-01 8.811302e+00 177 177 170
-1.727956e+00 1.244688e+00 8.039562e+00 77 74 107
-9.090623e-01 -5.558307e-02 1.151305e+01 174 176 173
-2.572634e+00 1.278741e+00 1.027612e+01 148 135 101
-1.672854e+00 1.248750e+00 8.033355e+00 50 59 56
-1.293278e+00 7.063847e-01 9.465133e+00 172 169 172
-2.670006e+00 1.320511e+00 1.048496e+01 87 77 47
-2.679767e+00 1.327291e+00 1.048745e+01 87 77 47
-7.536500e-01 -1.476299e-01 1.184009e+01 175 172 178
-1.231740e+00 7.011802e-01 9.450435e+00 54 52 51
-2.733591e+00 1.350246e+00 1.062792e+01 57 59 35
-1.648685e+00 1.348489e+00 7.744657e+00 90 83 90
-2.689765e+00 1.347176e+00 1.053208e+01 107 122 77
-1.161916e+00 6.575828e-01 9.537061e+00 122 119 119
-1.262919e+00 7.253832e-01 9.447085e+00 109 113 94
-1.262919e+00 7.253832e-01 9.447085e+00 109 113 94
-1.273142e+00 7.449859e-01 9.418402e+00 121 127 121
-1.234068e+00 7.513884e-01 9.371217e+00 50 60 56
-1.195860e+00 7.387051e-01 9.340717e+00 134 140 136
-2.554804e+00 1.359611e+00 1.027167e+01 125 111 93
-2.879706e+00 1.405650e+00 1.102883e+01 42 57 52
-4.647298e-01 -9.506980e-02 1.152231e+01 82 82 84
-4.647298e-01 -9.506980e-02 1.152231e+01 82 82 84
-2.823622e+00 1.389447e+00 1.113399e+01 78 76 71
-1.137352e+00 1.006175e+00 8.484843e+00 42 57 48
-1.092553e+00 9.776023e-01 8.545739e+00 72 72 97
-1.164036e+00 1.010620e+00 8.584551e+00 72 72 97
-2.498771e+00 1.430872e+00 1.021348e+01 150 134 121
-2.764605e+00 1.464680e+00 1.076395e+01 95 98 72
-8.875623e-01 6.957973e-01 9.461482e+00 128 129 124
-2.280651e-01 -1.550240e-01 1.167440e+01 176 171 174
-7.955712e-01 6.864611e-01 9.414085e+00 134 123 119
-7.742110e-01 7.063387e-01 9.340417e+00 40 51 55
-7.735872e-01 7.145995e-01 9.310469e+00 97 99 96
-7.363703e-01 7.121564e-01 9.312100e+00 51 55 55
-7.338677e-01 7.032861e-01 9.366400e+00 153 155 146
-7.622601e-01 7.427977e-01 9.331535e+00 106 113 106
-7.622601e-01 7.427977e-01 9.331535e+00 106 113 106
-1.151304e+00 1.493728e+00 7.029192e+00 98 88 79
-6.332569e-01 7.141243e-01 9.265774e+00 74 76 71
-8.385370e-01 1.038792e+00 8.350543e+00 174 176 173
-9.934872e-01 1.240060e+00 7.934039e+00 159 165 141
-4.774592e-01 6.752739e-01 9.391016e+00 67 77 69
-5.405678e-01 7.114688e-01 9.377527e+00 54 75 94
-2.747780e+00 1.629364e+00 1.081316e+01 147 154 169
-2.748853e+00 1.630133e+00 1.081302e+01 147 154 169
-7.536847e-01 1.265612e+00 7.811811e+00 117 132 139
-2.769447e+00 1.558966e+00 1.121162e+01 72 70 63
-8.257436e-01 1.448159e+00 7.304707e+00 163 165 152
-2.676865e+00 1.668707e+00 1.066700e+01 143 152 165
-2.680412e+00 1.669994e+00 1.066725e+01 143 152 165
-7.489048e-01 1.491417e+00 7.086221e+00 172 158 166
-2.744687e+00 1.670843e+00 1.082584e+01 138 147 161
-2.745928e+00 1.684178e+00 1.077020e+01 152 160 175
-2.675293e+00 1.691440e+00 1.067394e+01 155 150 160
-5.204111e-01 1.210552e+00 7.949258e+00 114 134 140
-6.098127e-01 1.380784e+00 7.451326e+00 112 110 117
-6.098127e-01 1.380784e+00 7.451326e+00 112 110 117
-2.617823e+00 1.710701e+00 1.054627e+01 28 53 92
-2.612342e+00 1.709020e+00 1.054621e+01 28 53 92
-2.600871e+00 1.718058e+00 1.052557e+01 31 57 100
-2.600871e+00 1.718058e+00 1.052557e+01 31 57 100
-2.649821e+00 1.760198e+00 1.053269e+01 149 155 168
-6.762910e-02 8.586757e-01 8.894816e+00 56 64 62
1.389906e-01 7.240756e-01 9.181376e+00 134 128 119
3.127658e-02 8.455846e-01 8.885340e+00 81 87 75
-2.641157e+00 1.792053e+00 1.064061e+01 75 39 34
-1.711856e-01 1.342555e+00 7.421385e+00 95 81 72
-1.422846e-01 1.326491e+00 7.515082e+00 167 158 159
-2.602704e+00 1.807243e+00 1.057896e+01 77 39 38
-2.627805e+00 1.654639e+00 1.131681e+01 59 58 54
2.414150e-01 9.610691e-01 8.367545e+00 73 117 112
-2.743449e-02 1.339056e+00 7.399523e+00 93 95 80
-2.845976e+00 1.815321e+00 1.117799e+01 28 24 12
-2.845976e+00 1.815321e+00 1.117799e+01 28 24 12
-2.568407e+00 1.838477e+00 1.052553e+01 77 38 30
-2.520110e+00 1.845196e+00 1.043427e+01 85 49 45
2.189506e-01 1.270481e+00 7.631123e+00 172 157 163
6.199795e-01 8.313631e-01 8.796056e+00 98 95 50
8.689791e-01 7.781432e-01 8.786101e+00 92 97 62
-2.658500e+00 1.926737e+00 1.076013e+01 24 20 15
-2.609278e+00 1.791117e+00 1.136269e+01 56 56 48
4.948097e-01 1.516643e+00 6.584172e+00 66 62 60
-2.530752e+00 2.072522e+00 1.053656e+01 149 151 145
-2.669583e+00 2.100042e+00 1.072864e+01 149 149 146
-2.630866e+00 1.937468e+00 1.139169e+01 79 77 69
-2.806909e+00 2.045988e+00 1.133100e+01 106 102 95
-2.624516e+00 2.133479e+00 1.062260e+01 149 148 149
-2.585241e+00 1.977398e+00 1.143422e+01 88 87 84
-2.673544e+00 2.142535e+00 1.091800e+01 111 78 64
-2.676023e+00 2.148415e+00 1.093003e+01 133 118 92
-2.701607e+00 2.178451e+00 1.089161e+01 134 111 95
-2.644401e+00 2.169475e+00 1.086723e+01 136 118 101
-2.679492e+00 2.199146e+00 1.079246e+01 135 113 97
-2.699791e+00 2.200944e+00 1.084529e+01 133 113 93
-2.622202e+00 2.181260e+00 1.082494e+01 139 115 96
2.257074e+00 1.074512e+00 7.670771e+00 62 58 48
-2.628812e+00 2.183897e+00 1.084946e+01 139 116 103
-2.580678e+00 2.199032e+00 1.070500e+01 92 61 47
-2.580678e+00 2.199032e+00 1.070500e+01 92 61 47
-2.621306e+00 2.237027e+00 1.066497e+01 104 71 56
-2.531609e+00 2.211268e+00 1.064702e+01 104 71 56
-2.645178e+00 2.245894e+00 1.074335e+01 100 67 54
-2.652335e+00 2.208653e+00 1.108674e+01 48 78 125
-2.496371e+00 2.196975e+00 1.107088e+01 173 166 155
-2.400943e+00 2.262454e+00 1.086733e+01 76 67 75
-4.223181e+00 7.095307e-01 1.011430e+01 134 134 134
-4.268851e+00 9.215434e-01 9.441186e+00 95 85 106
-4.241111e+00 8.871385e-01 9.556213e+00 134 139 130
-4.205924e+00 7.454084e-01 1.001276e+01 159 154 159
-4.215320e+00 9.064269e-01 9.500560e+00 137 137 127
-4.157338e+00 6.978624e-01 1.015253e+01 133 138 125
-4.211706e+00 9.363655e-01 9.406954e+00 152 147 154
-4.135605e+00 6.898338e-01 1.017965e+01 142 144 130
-4.135605e+00 6.898338e-01 1.017965e+01 142 144 130
-4.089143e+00 5.629797e-01 1.055816e+01 66 62 77
-4.089143e+00 5.629797e-01 1.055816e+01 66 62 77
-4.174976e+00 8.979206e-01 9.497472e+00 97 93 112
-4.094170e+00 5.725713e-01 1.055014e+01 155 154 151
-4.170011e+00 8.724507e-01 9.596417e+00 137 141 122
-4.129903e+00 7.247332e-01 1.005981e+01 77 74 95
-4.122896e+00 7.237458e-01 1.005045e+01 150 147 159
-4.106244e+00 6.870417e-01 1.021124e+01 71 66 86
-4.130888e+00 9.089240e-01 9.458763e+00 132 138 107
-4.116826e+00 8.826192e-01 9.522050e+00 92 87 118
-4.079056e+00 7.188253e-01 1.008007e+01 151 151 156
-4.094762e+00 9.274155e-01 9.383270e+00 129 131 112
-4.063058e+00 8.906807e-01 9.501333e+00 73 72 76
-4.048243e+00 8.626636e-01 9.562733e+00 65 63 75
-4.061799e+00 8.913356e-01 9.510335e+00 150 150 145
-4.061799e+00 8.913356e-01 9.510335e+00 150 150 145
-4.004914e+00 7.032758e-01 1.011557e+01 160 155 162
-4.059947e+00 8.807652e-01 9.597480e+00 140 151 109
-4.029369e+00 8.589778e-01 9.570734e+00 141 145 126
-4.033695e+00 9.309915e-01 9.372249e+00 84 75 94
-4.003789e+00 8.298340e-01 9.687140e+00 96 96 115
-3.999557e+00 8.299254e-01 9.667070e+00 144 147 130
-3.946765e+00 6.691644e-01 1.014816e+01 124 132 112
-3.989652e+00 8.483604e-01 9.617982e+00 155 155 146
-3.989652e+00 8.483604e-01 9.617982e+00 155 155 146
-3.948190e+00 6.757677e-01 1.019721e+01 80 75 97
-3.948190e+00 6.757677e-01 1.019721e+01 80 75 97
-3.982806e+00 8.524239e-01 9.604802e+00 140 144 129
-3.985286e+00 8.772514e-01 9.525935e+00 145 151 134
-4.006309e+00 8.947412e-01 9.540995e+00 145 151 134
-3.962535e+00 8.780384e-01 9.533304e+00 77 79 92
-3.945529e+00 9.152826e-01 9.463280e+00 171 173 171
-3.632893e+00 1.676239e-01 1.171106e+01 113 112 118
-3.632893e+00 1.676239e-01 1.171106e+01 113 112 118
-3.756592e+00 6.592961e-01 1.016320e+01 93 93 120
-3.760133e+00 6.734099e-01 1.012082e+01 160 157 159
-3.697757e+00 7.561463e-01 9.856495e+00 177 176 185
-3.697892e+00 8.462064e-01 9.603415e+00 55 56 54
-3.221480e+00 -2.869569e-01 1.261054e+01 73 72 95
-3.221480e+00 -2.869569e-01 1.261054e+01 73 72 95
-3.099084e+00 -3.358372e-01 1.269503e+01 66 66 99
-3.693871e+00 1.182747e+00 8.597699e+00 150 144 153
-3.599965e+00 1.051704e+00 8.969996e+00 71 60 93
-3.521083e+00 1.072832e+00 8.834725e+00 155 151 154
-3.063478e+00 -1.359849e-01 1.234625e+01 42 46 46
-3.146952e+00 -5.211080e-02 1.232719e+01 42 46 46
-3.462027e+00 1.032731e+00 8.991779e+00 143 150 118
-3.399866e+00 1.197003e+00 8.486205e+00 67 58 75
-2.718038e+00 1.752026e-02 1.189137e+01 56 55 61
-3.100825e+00 1.165789e+00 8.499165e+00 168 156 163
-2.503682e+00 -2.068605e-01 1.243622e+01 154 159 149
-2.503682e+00 -2.068605e-01 1.243622e+01 154 159 149
-2.896180e+00 5.636854e-01 1.064583e+01 88 62 54
-2.896180e+00 5.636854e-01 1.064583e+01 88 62 54
-2.431934e+00 -5.795504e-02 1.201491e+01 50 49 58
-2.431934e+00 -5.795504e-02 1.201491e+01 50 49 58
-2.905949e+00 1.139467e+00 8.508010e+00 72 74 96
-2.905310e+00 1.139828e+00 8.506390e+00 72 74 96
-2.895093e+00 1.146528e+00 8.480175e+00 76 75 103
-2.669641e+00 6.752259e-01 1.020509e+01 127 102 88
-2.965482e+00 7.668176e-01 1.089310e+01 105 100 71
-2.868889e+00 7.687359e-01 1.065583e+01 87 66 45
-2.858495e+00 7.622907e-01 1.065445e+01 87 66 45
-2.821470e+00 7.675530e-01 1.055822e+01 148 131 116
-2.059427e+00 -2.014112e-01 1.241720e+01 161 161 158
-2.914252e+00 8.130236e-01 1.082948e+01 103 89 60
-2.914252e+00 8.130236e-01 1.082948e+01 103 89 60
-2.799011e+00 8.152806e-01 1.052147e+01 102 81 62
-2.018208e+00 -1.238483e-01 1.214853e+01 152 156 143
-2.018038e+00 -6.762692e-02 1.193891e+01 66 80 78
-2.842237e+00 8.593760e-01 1.061085e+01 118 125 107
-2.020216e+00 -2.487227e-02 1.183370e+01 52 63 62
-2.020216e+00 -2.487227e-02 1.183370e+01 52 63 62
-1.927481e+00 -1.543767e-01 1.217004e+01 39 40 48
-2.492645e+00 1.031427e+00 8.783714e+00 87 86 118
-2.492645e+00 1.031427e+00 8.783714e+00 87 86 118
-1.944329e+00 -6.786712e-02 1.188488e+01 166 160 147
-2.897416e+00 8.815052e-01 1.083609e+01 102 76 48
-2.544827e+00 1.221626e+00 8.170228e+00 148 153 123
-1.880320e+00 -1.800197e-01 1.224794e+01 157 148 159
-1.847118e+00 -1.743317e-01 1.220478e+01 60 61 73
-1.936225e+00 3.898541e-02 1.155910e+01 44 46 44
-2.398174e+00 1.013869e+00 8.820098e+00 172 176 160
-2.606843e+00 8.786702e-01 1.013727e+01 98 85 66
-1.828068e+00 -7.723317e-02 1.194585e+01 151 154 136
-1.871075e+00 3.210445e-02 1.159377e+01 36 40 46
-2.464793e+00 1.239661e+00 8.176219e+00 78 82 89
-1.859711e+00 4.522309e-02 1.154172e+01 174 175 167
-1.855158e+00 4.430397e-02 1.152897e+01 31 40 43
-1.719303e+00 -2.100474e-01 1.225994e+01 49 56 64
-2.603815e+00 9.008436e-01 1.015086e+01 58 48 34
-2.490090e+00 1.315185e+00 7.983607e+00 158 153 144
-2.436443e+00 1.228566e+00 8.209391e+00 174 169 176
-1.744445e+00 -1.047853e-01 1.198061e+01 163 162 150
-2.866572e+00 9.805528e-01 1.075666e+01 140 121 104
-1.676728e+00 -1.544562e-01 1.208769e+01 74 84 76
-1.676728e+00 -1.544562e-01 1.208769e+01 74 84 76
-2.859199e+00 9.878448e-01 1.076438e+01 92 53 33
-2.942889e+00 1.016794e+00 1.097311e+01 113 105 86
-2.732891e+00 9.858198e-01 1.045395e+01 87 64 56
-1.624250e+00 -1.542010e-01 1.206057e+01 152 147 153
-1.635687e+00 -1.291181e-01 1.203123e+01 154 154 140
-1.635687e+00 -1.291181e-01 1.203123e+01 154 154 140
-2.304906e+00 1.196558e+00 8.274735e+00 176 172 183
-2.731685e+00 1.012325e+00 1.042435e+01 67 48 38
-1.730008e+00 1.476407e-01 1.114221e+01 74 75 80
-1.672092e+00 6.721863e-02 1.135841e+01 154 153 149
-1.672092e+00 6.721863e-02 1.135841e+01 154 153 149
-1.691540e+00 1.438050e-01 1.115783e+01 72 80 85
-1.530434e+00 -1.693737e-01 1.210450e+01 145 145 143
-1.514106e+00 -1.782184e-01 1.209185e+01 40 39 41
-2.684938e+00 1.028993e+00 1.033312e+01 104 78 57
-2.207884e+00 1.177756e+00 8.311342e+00 81 83 93
-1.543401e+00 -3.043202e-02 1.166662e+01 40 47 56
-1.601974e+00 1.070188e-01 1.123060e+01 44 52 51
-2.835620e+00 1.069344e+00 1.074834e+01 140 115 91
-2.624880e+00 1.038495e+00 1.022359e+01 152 136 123
-1.625792e+00 1.620301e-01 1.107468e+01 52 54 58
-2.209183e+00 1.253662e+00 8.114187e+00 170 170 180
-2.878871e+00 1.085498e+00 1.093964e+01 103 104 87
-1.477631e+00 2.041228e-02 1.145705e+01 51 54 59
-1.423047e+00 -7.499811e-02 1.175774e+01 167 169 164
-1.530792e+00 1.511583e-01 1.108141e+01 56 61 60
-1.408409e+00 -8.212798e-02 1.179496e+01 58 63 68
-1.412307e+00 -7.556948e-02 1.178116e+01 157 159 164
-2.123164e+00 1.230111e+00 8.142529e+00 138 140 128
-1.413526e+00 8.989716e-03 1.150584e+01 160 165 167
-2.886513e+00 1.139544e+00 1.092041e+01 59 62 41
-1.434799e+00 1.024342e-01 1.123832e+01 167 173 172
-2.829185e+00 1.145339e+00 1.076962e+01 126 97 73
-1.336524e+00 -8.099250e-03 1.152225e+01 48 52 57
-1.303190e+00 -8.406315e-02 1.177315e+01 66 70 74
-1.367086e+00 7.260070e-02 1.126878e+01 50 56 59
-1.331088e+00 7.653766e-02 1.121204e+01 157 159 161
-2.707503e+00 1.155697e+00 1.047448e+01 103 81 53
-1.933394e+00 1.106839e+00 8.462668e+00 75 79 100
-1.933394e+00 1.106839e+00 8.462668e+00 75 79 100
-1.773934e+00 8.545646e-01 9.203906e+00 141 137 136
-1.205321e+00 -4.978990e-02 1.160511e+01 56 58 55
-2.813644e+00 1.197029e+00 1.073925e+01 66 49 34
-1.250980e+00 8.778932e-02 1.117427e+01 59 60 71
-1.249349e+00 8.823186e-02 1.118784e+01 159 160 162
-1.227356e+00 7.354738e-02 1.122023e+01 51 53 58
-1.190918e+00 2.763234e-02 1.134841e+01 64 66 72
-2.540623e+00 1.193031e+00 1.011093e+01 151 128 114
-1.141060e+00 4.230026e-02 1.128741e+01 55 64 61
-1.902553e+00 1.288559e+00 7.962782e+00 86 78 106
-1.133984e+00 3.620804e-02 1.139122e+01 57 66 68
-2.845879e+00 1.237372e+00 1.089764e+01 99 104 83
-2.790315e+00 1.170109e+00 1.109719e+01 57 56 51
-2.749209e+00 1.265259e+00 1.056968e+01 68 50 34
-1.849832e+00 1.282794e+00 7.985005e+00 143 158 132
-1.037387e+00 -9.683467e-03 1.141522e+01 71 76 80
-2.826519e+00 1.201308e+00 1.108341e+01 82 77 71
-1.043001e+00 -4.518859e-03 1.142963e+01 164 163 168
-2.772042e+00 1.165696e+00 1.110561e+01 61 57 52
-1.008955e+00 -2.607076e-02 1.145660e+01 63 69 69
-9.959851e-01 -1.472329e-02 1.143404e+01 68 72 76
-8.521206e-01 -2.203906e-01 1.204060e+01 77 78 73
-2.744271e+00 1.305501e+00 1.063382e+01 76 65 50
-1.641683e+00 1.229535e+00 7.975490e+00 93 94 103
-7.612703e-01 -2.237728e-01 1.201307e+01 76 75 80
-1.719953e+00 1.358720e+00 7.651549e+00 157 155 139
-8.481209e-01 -2.720500e-02 1.141497e+01 66 67 68
-2.813313e+00 1.336362e+00 1.083820e+01 69 73 59
-2.551867e+00 1.319148e+00 1.025520e+01 85 67 48
-2.599907e+00 1.344459e+00 1.026895e+01 85 67 48
-2.741279e+00 1.358395e+00 1.061955e+01 106 101 75
-2.741279e+00 1.358395e+00 1.061955e+01 106 101 75
-1.244080e+00 7.029741e-01 9.583493e+00 70 69 43
-6.158325e-01 -1.891053e-01 1.189595e+01 158 157 159
-5.899096e-01 -1.879305e-01 1.184044e+01 161 160 165
-5.899096e-01 -1.879305e-01 1.184044e+01 161 160 165
-6.049026e-01 -1.829754e-01 1.186967e+01 169 164 165
-2.588132e+00 1.365365e+00 1.033306e+01 95 63 40
-2.584042e+00 1.362855e+00 1.033337e+01 95 63 40
-1.064194e+00 6.146964e-01 9.656283e+00 85 94 107
-5.897089e-01 -8.232629e-02 1.153413e+01 81 86 83
-2.862555e+00 1.417080e+00 1.099241e+01 37 56 50
-2.857450e+00 1.419858e+00 1.098093e+01 43 60 54
-2.843653e+00 1.420550e+00 1.096764e+01 41 58 52
-2.860913e+00 1.431592e+00 1.098440e+01 141 140 136
-2.796114e+00 1.433580e+00 1.080254e+01 145 148 139
-2.854123e+00 1.436026e+00 1.096861e+01 141 147 147
-1.185530e+00 1.050215e+00 8.465100e+00 116 119 108
-1.183421e+00 1.054014e+00 8.500305e+00 59 65 70
-2.777829e+00 1.380391e+00 1.115990e+01 78 75 68
-8.990630e-01 7.205255e-01 9.314841e+00 97 99 101
-8.356030e-01 6.849870e-01 9.428704e+00 75 76 73
-1.165280e+00 1.150113e+00 8.232533e+00 165 157 161
-1.134365e+00 1.139197e+00 8.234204e+00 86 96 103
-1.134365e+00 1.139197e+00 8.234204e+00 86 96 103
-1.126477e+00 1.147056e+00 8.210532e+00 89 109 116
-2.710467e-01 -3.248609e-02 1.127086e+01 166 167 170
-2.710467e-01 -3.248609e-02 1.127086e+01 166 167 170
-8.162513e-01 7.374089e-01 9.292098e+00 95 97 91
-1.183873e+00 1.448456e+00 7.232359e+00 99 94 85
-7.433478e-01 7.318570e-01 9.345854e+00 64 68 68
-6.968087e-01 7.188646e-01 9.293311e+00 64 70 70
-1.043186e-01 -4.137496e-02 1.131542e+01 108 109 110
-1.134326e+00 1.438198e+00 7.335777e+00 110 106 99
-9.517476e-01 1.119174e+00 8.301582e+00 179 175 184
-9.517476e-01 1.119174e+00 8.301582e+00 179 175 184
-1.058382e+00 1.427526e+00 7.300942e+00 107 97 102
1.039731e-01 -1.348220e-01 1.149115e+01 115 118 110
-4.929020e-01 7.461912e-01 9.060358e+00 97 109 106
-8.607741e-01 1.207386e+00 7.956189e+00 126 143 119
-7.714237e-01 1.183050e+00 7.869674e+00 90 107 63
-2.660116e+00 1.469643e+00 1.124110e+01 114 106 103
-8.921192e-01 1.395036e+00 7.486071e+00 116 108 112
-2.651214e+00 1.470287e+00 1.125279e+01 115 111 102
-2.591427e+00 1.438187e+00 1.126806e+01 79 76 67
-2.591427e+00 1.438187e+00 1.126806e+01 79 76 67
-5.062634e-01 8.296267e-01 9.063907e+00 181 179 191
-2.763705e+00 1.639383e+00 1.085769e+01 129 142 167
-8.169909e-01 1.378012e+00 7.535611e+00 117 110 108
-2.766381e+00 1.645600e+00 1.084875e+01 41 51 79
-8.016690e-01 1.519272e+00 6.973373e+00 93 78 68
-8.016690e-01 1.519272e+00 6.973373e+00 93 78 68
-7.639027e-01 1.422553e+00 7.336179e+00 105 94 87
-2.688415e+00 1.663724e+00 1.068805e+01 165 169 176
-2.826611e+00 1.628792e+00 1.120402e+01 52 49 49
-2.699632e+00 1.688443e+00 1.065397e+01 150 152 167
-6.836821e-01 1.403189e+00 7.367232e+00 113 100 103
-2.662299e+00 1.680487e+00 1.063931e+01 43 58 79
-2.800341e+00 1.675035e+00 1.099425e+01 59 28 25
-1.878910e-01 8.519372e-01 8.964658e+00 118 115 106
-2.781175e+00 1.725303e+00 1.091343e+01 143 108 103
-2.781175e+00 1.725303e+00 1.091343e+01 143 108 103
-2.663169e+00 1.741811e+00 1.057138e+01 141 151 171
-2.663169e+00 1.741811e+00 1.057138e+01 141 151 171
-2.604429e+00 1.726579e+00 1.053987e+01 142 153 180
-2.657039e+00 1.748806e+00 1.055200e+01 142 153 180
-4.885771e-01 1.458244e+00 7.133080e+00 100 99 60
-1.185648e-01 8.954986e-01 8.770146e+00 56 82 79
-3.698198e-01 1.335914e+00 7.493630e+00 109 103 99
1.371230e-01 6.966097e-01 9.226360e+00 138 134 123
4.814183e-02 8.519491e-01 8.734891e+00 58 66 55
-3.471227e-01 1.329987e+00 7.526253e+00 111 107 100
-2.571893e+00 1.568534e+00 1.131841e+01 114 110 101
-2.712633e+00 1.662082e+00 1.127202e+01 116 108 97
-2.135868e-01 1.283106e+00 7.658877e+00 125 122 130
-2.135868e-01 1.283106e+00 7.658877e+00 125 122 130
-3.388024e-01 1.422901e+00 7.331823e+00 166 168 165
-1.700445e-01 1.220290e+00 7.884791e+00 132 125 132
1.535132e-01 8.447398e-01 8.869190e+00 91 68 62
-2.625851e+00 1.640006e+00 1.131642e+01 111 108 102
1.484090e-01 8.591839e-01 8.882043e+00 116 104 103
-6.842656e-03 1.277162e+00 7.397057e+00 100 99 94
-8.247375e-02 1.515953e+00 6.558928e+00 113 104 93
-7.476725e-02 1.276561e+00 7.650920e+00 114 113 114
-7.476725e-02 1.276561e+00 7.650920e+00 114 113 114
-1.585909e-02 1.241107e+00 7.745882e+00 123 114 115
7.244995e-02 1.231740e+00 7.736425e+00 170 161 164
-2.560594e+00 1.662250e+00 1.134890e+01 97 88 83
-2.560594e+00 1.662250e+00 1.134890e+01 97 88 83
3.041950e-01 1.114819e+00 7.884298e+00 123 123 120
1.886444e-01 1.158499e+00 7.948751e+00 123 123 120
-2.592933e+00 1.888893e+00 1.045664e+01 71 42 34
5.918299e-01 7.916520e-01 8.950722e+00 134 108 53
2.466578e-01 1.204610e+00 7.857358e+00 119 118 107
-2.617190e+00 1.736382e+00 1.134384e+01 56 53 49
-2.703138e+00 1.803206e+00 1.131483e+01 30 29 24
7.805732e-01 7.897867e-01 8.924385e+00 128 126 85
6.277150e-01 1.144401e+00 7.753547e+00 176 161 173
6.404483e-01 1.176093e+00 7.647824e+00 117 110 108
-2.758751e+00 1.982667e+00 1.103527e+01 22 19 22
-2.758840e+00 1.982768e+00 1.103529e+01 22 19 22
-2.678030e+00 1.998245e+00 1.084354e+01 13 15 18
-2.672358e+00 2.081688e+00 1.072534e+01 26 19 22
-2.692865e+00 1.953490e+00 1.136733e+01 30 26 22
-2.680870e+00 1.954066e+00 1.137614e+01 97 93 89
-2.617226e+00 2.108095e+00 1.059569e+01 27 24 27
-2.772830e+00 2.033297e+00 1.134057e+01 34 31 25
-2.772830e+00 2.033297e+00 1.134057e+01 34 31 25
-2.740000e+00 2.019011e+00 1.135864e+01 32 29 24
-2.670735e+00 2.010337e+00 1.139520e+01 33 29 25
-2.627987e+00 1.989473e+00 1.141174e+01 103 97 92
-2.749289e+00 2.139538e+00 1.101810e+01 136 112 94
-2.702680e+00 2.147379e+00 1.099496e+01 144 114 104
-2.689543e+00 2.191908e+00 1.083533e+01 86 52 37
-2.689543e+00 2.191908e+00 1.083533e+01 86 52 37
-2.689543e+00 2.191908e+00 1.083533e+01 86 52 37
-2.472069e+00 2.179548e+00 1.112756e+01 72 68 65
-2.558672e+00 2.267018e+00 1.087439e+01 59 78 119
-2.486958e+00 2.207556e+00 1.103734e+01 171 168 156
-2.370422e+00 2.293142e+00 1.077596e+01 78 71 71
-3.297687e+00 1.109001e+00 8.714509e+00 156 166 140
-3.490565e+00 1.048188e+00 8.946387e+00 170 169 169
-3.548635e+00 1.081434e+00 8.866871e+00 41 27 46
-3.314210e+00 1.035814e+00 8.931964e+00 32 28 41
-3.624528e+00 1.048398e+00 8.989479e+00 57 43 72
-2.658870e+00 6.672197e-01 1.017573e+01 76 54 62
-2.870625e+00 1.197412e+00 1.088426e+01 44 47 37
-2.526053e+00 1.423504e+00 1.024629e+01 147 139 111
-4.043488e+00 1.024774e+00 9.187549e+00 137 147 126
-3.799575e+00 8.797742e-01 9.558398e+00 156 162 148
-3.423823e+00 1.229632e+00 8.410044e+00 154 158 147
-3.271193e+00 1.100987e+00 8.728320e+00 170 170 172
-3.204017e+00 1.074536e+00 8.788597e+00 162 173 154
-3.086586e+00 1.171736e+00 8.478583e+00 62 56 73
-2.772434e+00 1.105176e+00 8.564127e+00 71 65 98
-2.344356e+00 9.907122e-01 8.790809e+00 62 66 81
-3.000616e+00 1.165784e+00 8.470993e+00 86 77 108
-3.000616e+00 1.165784e+00 8.470993e+00 86 77 108
-2.434012e+00 1.016326e+00 8.729456e+00 186 183 200
-1.137989e+00 6.548604e-01 9.521855e+00 44 47 39
-1.404664e+00 7.215563e-01 9.409361e+00 17 58 109
-2.221180e+00 6.546204e-01 1.004521e+01 47 49 44
-1.428707e+00 1.832178e-01 1.103904e+01 168 168 170
-5.702428e+00 5.742928e-01 1.095902e+01 181 180 182
-1.245976e+00 -5.092353e-01 1.361715e+01 160 159 155
-5.518408e+00 4.642238e-01 1.138942e+01 54 57 25
-5.655530e+00 3.890220e-01 1.147827e+01 54 57 25
-5.452189e+00 2.573818e-01 1.178050e+01 42 44 31
-5.406653e+00 2.808435e-01 1.174434e+01 42 44 31
-6.363602e+00 6.429087e-01 1.105449e+01 85 86 20
-6.195624e+00 5.049570e-01 1.130198e+01 89 104 24
-6.074719e+00 5.624078e-01 1.123228e+01 89 104 24
-1.996195e+00 -5.122613e-01 1.375130e+01 131 140 113
-2.006699e+00 -5.319577e-01 1.378242e+01 131 140 113
-5.565619e+00 4.305926e-01 1.174276e+01 183 183 184
-2.735907e+00 -7.197292e-01 1.453108e+01 81 87 80
-2.597222e+00 -8.040392e-01 1.502117e+01 163 162 157
-7.392914e-01 5.433259e-01 9.790373e+00 49 52 41
-1.606176e+00 7.423092e-01 9.338888e+00 17 32 47
-1.735625e+00 7.767458e-01 9.278931e+00 42 47 41
-1.788695e+00 -4.806714e-02 1.192143e+01 176 175 173
-1.160472e+00 -1.906489e-01 1.234309e+01 113 116 113
-1.115391e+00 -4.483588e-01 1.305422e+01 158 157 155
-1.118534e+00 -4.694650e-01 1.327913e+01 54 57 38
-5.504961e+00 1.790557e-01 1.215541e+01 151 157 153
-1.706956e+00 -8.518608e-01 1.460640e+01 156 155 152
-2.801427e+00 -6.418928e-01 1.415371e+01 174 174 174
-1.619235e+00 -9.430781e-01 1.497429e+01 55 73 46
-3.068170e+00 -6.292255e-01 1.430780e+01 51 52 50
-3.634958e+00 -5.131904e-01 1.407100e+01 55 61 52
-3.234606e+00 -5.142849e-01 1.414724e+01 42 56 60
-3.947241e+00 -5.362855e-01 1.411651e+01 35 45 45
-8.722647e-01 5.914140e-01 9.708275e+00 29 32 25
-6.259965e-01 2.414223e-01 1.070567e+01 159 159 157
-3.534666e+00 1.148362e+00 8.715975e+00 184 185 188
-2.458882e+00 9.220495e-01 1.001059e+01 46 52 46
-1.276764e+00 9.512810e-02 1.146125e+01 171 171 171
-1.276764e+00 9.512810e-02 1.146125e+01 171 171 171
-4.550807e+00 8.472932e-01 9.845990e+00 170 174 158
-1.396078e+00 -1.888897e-01 1.245560e+01 166 164 166
-1.244841e+00 -3.323168e-01 1.283408e+01 59 61 36
-1.608758e+00 -6.855915e-01 1.402772e+01 162 161 158
-5.613178e+00 2.681051e-01 1.202947e+01 181 183 188
-6.799450e+00 6.326690e-01 1.132146e+01 181 179 182
-1.956742e+00 -8.428289e-01 1.476223e+01 50 55 35
-9.195938e-01 6.260392e-01 9.654328e+00 49 50 42
-9.413142e-01 5.838282e-01 9.744118e+00 165 165 166
-1.237065e+00 6.694920e-01 9.582206e+00 165 164 170
-1.380142e+00 4.557210e-01 1.021271e+01 171 171 173
-3.623520e+00 1.085574e+00 8.940520e+00 76 90 103
-4.209851e+00 1.285827e+00 8.644124e+00 96 73 42
-3.743035e+00 9.525024e-01 9.388599e+00 191 191 194
-1.541064e+00 2.425994e-01 1.099543e+01 170 169 172
-3.831651e+00 9.582823e-01 9.369807e+00 191 190 195
-1.188932e+00 1.062401e-01 1.147612e+01 172 172 172
-3.961365e+00 8.844134e-01 9.666646e+00 79 85 86
-1.702800e+00 1.306707e-01 1.134258e+01 172 172 172
-9.156221e-01 -5.201173e-02 1.187556e+01 163 164 158
-1.466539e+00 7.692899e-03 1.169912e+01 176 176 176
-1.716746e+00 6.998497e-02 1.157513e+01 179 179 179
-1.819482e+00 -5.943993e-01 1.384073e+01 167 164 158
-1.819482e+00 -5.943993e-01 1.384073e+01 167 164 158
-3.604962e+00 -2.414053e-01 1.310098e+01 177 173 170
-1.784566e+00 -6.332831e-01 1.405641e+01 102 105 84
-1.794029e+00 -6.492460e-01 1.408249e+01 102 105 84
-1.703972e+00 -6.823479e-01 1.417245e+01 95 95 68
-1.703972e+00 -6.823479e-01 1.417245e+01 95 95 68
-3.485680e+00 -5.955887e-01 1.408812e+01 171 171 170
-3.556987e+00 -6.301406e-01 1.435558e+01 85 98 96
-4.971100e+00 -6.882270e-01 1.482048e+01 190 198 217
-2.139971e+00 2.241438e+00 1.051406e+01 131 135 151
-2.153728e+00 2.232458e+00 1.053186e+01 131 135 151
-1.548715e+01 -5.541312e+00 4.095185e+01 105 50 47
-1.491657e+01 -5.358216e+00 4.069933e+01 6 6 6
-7.837596e-01 6.144052e-01 9.612069e+00 50 51 46
-1.512145e+00 7.906029e-01 9.199110e+00 34 35 30
-1.485901e+00 7.598432e-01 9.289218e+00 18 20 17
-1.438160e+00 7.412287e-01 9.323247e+00 102 105 95
-1.531328e+00 7.249176e-01 9.403661e+00 20 30 58
-1.771862e+00 7.993285e-01 9.232680e+00 128 129 124
-9.422504e-01 5.147345e-01 9.945280e+00 142 39 25
-2.257978e+00 6.933571e-01 1.002648e+01 105 107 104
-2.257978e+00 6.933571e-01 1.002648e+01 105 107 104
-2.317800e+00 7.081942e-01 1.000307e+01 74 74 85
-2.317800e+00 7.081942e-01 1.000307e+01 74 74 85
-2.345444e+00 7.536199e-01 1.001048e+01 47 52 47
-3.924201e+00 8.623399e-01 9.597548e+00 191 191 193
-9.724569e-01 -6.428349e-02 1.189673e+01 166 166 164
-9.724569e-01 -6.428349e-02 1.189673e+01 166 166 164
-1.224697e+00 -3.885680e-03 1.176368e+01 172 172 172
-1.843274e+00 9.841782e-02 1.151505e+01 180 180 180
-1.843274e+00 9.841782e-02 1.151505e+01 180 180 180
-2.197011e+00 5.392882e-03 1.196827e+01 171 170 165
-1.770079e+00 -1.977448e-01 1.246352e+01 171 170 168
-2.309391e+00 -1.171577e-01 1.237360e+01 172 171 169
-2.309391e+00 -1.171577e-01 1.237360e+01 172 171 169
-5.762240e+00 5.593799e-01 1.116449e+01 90 101 33
-6.499164e+00 7.144680e-01 1.094861e+01 86 92 19
-6.084972e+00 5.218437e-01 1.138930e+01 87 104 26
-5.867700e+00 9.807359e-02 1.258500e+01 180 180 181
-9.703894e+00 -5.474598e+00 3.232229e+01 105 116 129
-9.818509e+00 -5.558237e+00 3.257569e+01 105 116 129
-7.994354e-01 6.289019e-01 9.576103e+00 121 122 114
-1.553781e+00 8.364419e-01 9.073218e+00 130 135 119
-8.299310e-01 6.175233e-01 9.616774e+00 38 41 33
-4.678333e-01 4.620074e-01 9.959579e+00 13 12 16
-4.678333e-01 4.620074e-01 9.959579e+00 13 12 16
-1.540905e+00 8.004806e-01 9.177791e+00 23 25 23
-1.153420e+00 6.444821e-01 9.596227e+00 34 36 42
-1.000577e+00 5.665382e-01 9.825791e+00 99 101 113
-3.125874e+00 1.212346e+00 8.429951e+00 184 184 186
-1.113676e+00 5.029743e-01 1.004248e+01 50 53 45
-1.292131e+00 4.546774e-01 1.023595e+01 176 176 170
-3.687936e+00 1.148014e+00 8.813898e+00 186 187 187
-3.833085e+00 1.188493e+00 8.751730e+00 187 187 191
-4.138628e+00 1.288344e+00 8.596020e+00 186 190 192
-2.523318e+00 7.086260e-01 9.929057e+00 203 195 196
-4.141555e+00 1.239801e+00 8.735043e+00 190 189 194
-1.570208e+00 3.159480e-01 1.077395e+01 168 166 168
-2.202776e+00 8.435559e-01 1.009214e+01 45 45 46
-8.023915e-01 -8.579801e-02 1.194072e+01 160 159 156
-7.702300e-01 -2.927109e-01 1.251430e+01 154 155 147
-9.374571e-01 -4.072768e-01 1.295293e+01 94 109 83
-1.927616e+00 -1.336761e-01 1.234067e+01 170 171 166
-2.031462e+00 -6.646038e-02 1.224046e+01 171 171 171
-2.141899e+00 -6.043737e-02 1.221256e+01 171 170 167
-2.251070e+00 2.386553e-02 1.209231e+01 171 170 166
-1.601200e+00 -2.873398e-01 1.274057e+01 167 169 164
-5.803520e+00 9.306153e-01 1.007906e+01 108 95 33
-1.243982e+00 -4.503140e-01 1.320110e+01 155 159 155
-1.402758e+00 -6.205766e-01 1.375544e+01 160 158 159
-6.359509e+00 7.134004e-01 1.087271e+01 135 145 44
-3.100608e+00 -2.433220e-01 1.300331e+01 180 176 177
-2.326171e+00 -4.458788e-01 1.348930e+01 171 171 170
-2.276835e+00 -3.637126e-01 1.337348e+01 171 171 170
-5.436067e+00 3.859468e-01 1.164932e+01 159 164 164
-3.685403e+00 -2.473588e-01 1.302949e+01 177 178 175
-3.090278e+00 -4.166181e-01 1.345516e+01 53 53 54
-3.253831e+00 -3.338047e-01 1.343170e+01 177 177 177
-5.614058e+00 1.422173e-01 1.230167e+01 180 180 180
-3.552160e+00 -5.333382e-01 1.404924e+01 58 63 57
-4.150711e+00 -4.198767e-01 1.381063e+01 41 41 38
-7.816646e+00 3.893275e-01 1.214278e+01 116 106 87
-4.249093e+00 -5.215764e-01 1.426984e+01 173 172 170
-4.415334e+00 -7.959368e-01 1.512099e+01 96 88 72
-2.173310e+00 2.150080e+00 1.046503e+01 33 38 31
-2.123540e+00 2.191096e+00 1.055460e+01 32 35 29
-2.115382e+00 2.224270e+00 1.055658e+01 32 36 29
-2.123270e+00 2.247069e+00 1.057254e+01 32 34 29
-8.805121e-01 6.283116e-01 9.580608e+00 89 96 78
-8.687119e-01 6.245674e-01 9.608447e+00 38 39 32
-8.743200e-01 6.174821e-01 9.616169e+00 38 39 32
-1.215130e+00 7.028379e-01 9.417035e+00 116 118 108
-1.468524e+00 7.696927e-01 9.245272e+00 27 29 26
-7.932707e-01 5.721082e-01 9.741868e+00 96 98 84
-7.910378e-01 5.658425e-01 9.744119e+00 96 98 84
-1.266824e+00 6.981314e-01 9.415071e+00 117 120 107
-1.415677e+00 7.392043e-01 9.324866e+00 104 108 96
-7.511344e-01 5.413976e-01 9.825759e+00 43 45 39
-1.364741e+00 7.099036e-01 9.409317e+00 14 35 74
-1.204473e+00 6.639613e-01 9.538773e+00 51 52 46
-1.314347e+00 6.758662e-01 9.498277e+00 117 119 116
-1.031779e+00 5.637029e-01 9.808675e+00 17 27 34
-5.801574e-01 1.721872e-01 1.091350e+01 157 157 155
-3.690298e+00 1.091273e+00 8.859447e+00 188 187 187
-4.099560e+00 1.209026e+00 8.622705e+00 130 123 103
-4.111267e+00 1.277671e+00 8.616604e+00 187 186 191
-4.279168e+00 1.323878e+00 8.533216e+00 181 180 182
-4.279168e+00 1.323878e+00 8.533216e+00 181 180 182
-2.516808e+00 7.543949e-01 9.943716e+00 199 192 194
-1.600047e+00 3.102940e-01 1.077136e+01 172 170 170
-1.600047e+00 3.102940e-01 1.077136e+01 172 170 170
-1.633095e+00 2.990367e-01 1.078165e+01 170 169 170
-1.089824e+00 5.429813e-02 1.145117e+01 170 171 170
-1.562276e+00 1.737359e-01 1.119325e+01 170 170 171
-4.306880e+00 9.557401e-01 9.517747e+00 188 189 191
-4.533303e+00 8.537650e-01 9.904180e+00 182 181 179
-1.778300e+00 -8.613427e-02 1.222030e+01 169 168 163
-1.182390e+00 -3.362615e-01 1.284409e+01 157 159 149
-9.318965e-01 -4.913351e-01 1.318652e+01 93 41 31
-1.500542e+00 -2.934537e-01 1.287622e+01 162 163 159
-1.520428e+00 -3.368251e-01 1.293356e+01 162 163 159
-2.633116e+00 -8.301224e-02 1.230443e+01 174 173 168
-2.755305e+00 -5.847052e-02 1.225827e+01 174 173 169
-1.589604e+00 -2.406587e-01 1.280820e+01 166 167 162
-1.589604e+00 -2.406587e-01 1.280820e+01 166 167 162
-1.974694e+00 -1.856342e-01 1.265600e+01 173 173 169
-2.084473e+00 -1.747852e-01 1.262793e+01 173 172 167
-2.366902e+00 -1.852895e-01 1.259439e+01 172 171 168
-2.366902e+00 -1.852895e-01 1.259439e+01 172 171 168
-2.739327e+00 -1.455512e-01 1.249463e+01 175 174 172
-3.015921e+00 -7.035204e-02 1.235072e+01 175 171 168
-3.004454e+00 -1.093970e-01 1.240551e+01 175 171 168
-2.989586e+00 -9.167980e-02 1.238244e+01 175 171 168
-2.326495e+00 1.630488e+00 1.024389e+01 51 56 59
-3.094385e+00 -1.937156e-01 1.271413e+01 180 177 173
-3.094385e+00 -1.937156e-01 1.271413e+01 180 177 173
-3.277372e+00 -1.661918e-01 1.264967e+01 177 176 172
-1.535223e+00 -5.963597e-01 1.370711e+01 160 161 156
-4.964685e+00 2.540002e-01 1.179553e+01 22 22 18
-5.454818e+00 4.002638e-01 1.150474e+01 60 66 27
-1.935794e+00 -4.488505e-01 1.353293e+01 169 166 162
-5.382609e+00 3.821265e-01 1.156223e+01 50 49 27
-3.010024e+00 -3.536799e-01 1.317333e+01 179 176 174
-2.868768e+00 -2.741726e-01 1.307830e+01 177 177 177
-4.871324e+00 1.831396e-01 1.198508e+01 148 142 105
-3.406943e+00 -2.392101e-01 1.294261e+01 180 177 176
-3.504993e+00 -2.565178e-01 1.296394e+01 176 175 170
-5.522695e+00 4.312717e-01 1.154538e+01 153 159 153
-1.880928e+00 -5.988735e-01 1.389483e+01 164 165 154
-1.887693e+00 -6.121219e-01 1.391174e+01 164 165 154
-3.853853e+00 -2.706618e-01 1.311757e+01 47 44 39
-2.107470e+00 -6.059093e-01 1.395626e+01 63 66 51
-6.560256e+00 6.017081e-01 1.125782e+01 92 111 25
-3.870234e+00 -2.868258e-01 1.321200e+01 119 117 110
-3.867611e+00 -3.228661e-01 1.340934e+01 180 176 175
-3.274921e+00 -4.057806e-01 1.367914e+01 67 69 63
-3.306732e+00 -5.476014e-01 1.389722e+01 66 68 61
-6.467588e+00 3.969237e-01 1.190777e+01 154 136 115
-6.467588e+00 3.969237e-01 1.190777e+01 154 136 115
-8.911655e+00 -1.323520e+01 3.327826e+01 44 49 38
-2.384500e+00 -7.441902e-01 1.459072e+01 161 163 151
-2.699339e+00 -8.505525e-01 1.497385e+01 159 159 153
-3.856241e+00 -4.894055e-01 1.423051e+01 173 175 169
-3.856909e+00 -5.817229e-01 1.438783e+01 176 178 180
-4.793408e+00 -8.741445e-01 1.528945e+01 91 84 75
-7.566732e+00 -2.327846e-01 1.395823e+01 109 104 86
-1.013013e+01 -5.546131e+00 3.298369e+01 44 45 40
-9.389463e+00 -5.072730e+00 3.232733e+01 47 46 40
-1.152569e+00 7.141520e-01 9.341028e+00 136 141 132
-7.548121e-01 5.942250e-01 9.671808e+00 32 35 28
-7.548121e-01 5.942250e-01 9.671808e+00 32 35 28
-1.262048e+00 7.288408e-01 9.318652e+00 65 67 62
-1.402900e+00 7.738488e-01 9.223519e+00 43 44 41
-1.646964e+00 8.521630e-01 9.045455e+00 118 122 108
-4.910866e-01 4.709866e-01 9.945049e+00 73 78 66
-1.204021e+00 6.854648e-01 9.455057e+00 38 34 43
-9.084390e-01 5.932738e-01 9.687316e+00 25 22 29
-1.692197e+00 8.102895e-01 9.174358e+00 141 144 127
-1.066617e+00 6.177612e-01 9.659482e+00 53 54 77
-1.788533e+00 8.157665e-01 9.190407e+00 70 71 62
-2.441854e+00 1.021058e+00 8.714147e+00 66 55 74
-2.962143e+00 1.153951e+00 8.495213e+00 181 183 182
-3.434251e+00 1.003393e+00 9.034691e+00 31 33 46
-3.655655e+00 1.129294e+00 8.825909e+00 184 186 187
-3.755528e+00 1.149938e+00 8.836822e+00 45 40 47
-1.179653e+00 7.851224e-02 1.144726e+01 168 172 177
-1.736033e+00 2.029169e-01 1.112120e+01 171 171 170
-4.061190e+00 9.743019e-01 9.431557e+00 188 191 192
-4.160239e+00 7.444647e-01 1.010866e+01 179 179 175
-4.304295e+00 7.810759e-01 1.002994e+01 179 179 175
-8.604264e-01 -2.698087e-01 1.248000e+01 154 155 148
-8.604264e-01 -2.698087e-01 1.248000e+01 154 155 148
-9.893911e-01 -2.389232e-01 1.242759e+01 160 159 160
-1.120649e+00 -2.023499e-01 1.236383e+01 154 160 146
-1.407322e+00 -1.010098e-01 1.219120e+01 168 169 163
-1.593527e+00 -7.809934e-02 1.212727e+01 168 168 160
-4.277254e+00 6.651438e-01 1.038551e+01 182 179 178
-1.724069e+00 -1.821079e-02 1.204516e+01 172 168 169
-2.182557e+00 1.285810e+00 1.023380e+01 43 48 53
-2.346464e+00 1.319127e+00 1.015839e+01 48 52 51
-2.347740e+00 1.318122e+00 1.016095e+01 48 52 51
-4.152739e+00 5.916438e-01 1.058174e+01 182 180 183
-1.449386e+00 -1.214568e-01 1.230158e+01 165 167 163
-1.457288e+00 -1.468757e-01 1.232628e+01 165 167 163
-1.637197e+00 -8.056160e-02 1.221171e+01 171 169 168
-1.814515e+00 -8.362794e-02 1.217499e+01 171 170 168
-4.127629e+00 5.067407e-01 1.082865e+01 169 171 172
-8.890946e-01 -3.684892e-01 1.289613e+01 153 153 142
-2.342979e+00 1.559396e+00 1.022178e+01 48 55 55
-2.268596e+00 1.545129e+00 1.025922e+01 49 54 57
-2.269452e+00 1.544096e+00 1.026042e+01 49 54 57
-2.319032e+00 1.551061e+00 1.024052e+01 47 55 57
-1.147689e+00 -5.345039e-01 1.352138e+01 156 156 147
-4.482252e+00 2.166586e-01 1.179503e+01 24 30 22
-5.392205e+00 4.707339e-01 1.128511e+01 53 54 19
-4.783962e+00 3.132895e-01 1.167224e+01 99 104 64
-3.373347e+00 -1.629489e-01 1.271826e+01 176 173 171
-4.688966e+00 1.756009e-01 1.195506e+01 30 33 26
-4.688966e+00 1.756009e-01 1.195506e+01 30 33 26
-2.211983e+00 1.669391e+00 1.032775e+01 46 53 57
-2.161865e+00 1.660347e+00 1.034975e+01 40 44 44
-2.302968e+00 1.688213e+00 1.028497e+01 51 58 64
-5.414140e+00 3.880109e-01 1.153087e+01 141 142 117
-2.884537e+00 -3.841699e-01 1.323893e+01 176 175 179
-1.917535e+00 -5.218645e-01 1.364366e+01 167 164 159
-5.166141e+00 3.712385e-01 1.162521e+01 25 27 24
-1.871700e+00 -5.670061e-01 1.373224e+01 167 161 155
-5.219772e+00 2.495650e-01 1.181091e+01 53 60 28
-3.547594e+00 -2.108836e-01 1.287199e+01 177 177 175
-3.469575e+00 -1.658555e-01 1.282031e+01 177 176 172
-3.610359e+00 -1.814060e-01 1.282984e+01 179 178 176
-2.410087e+00 -3.546011e-01 1.335093e+01 175 171 173
