ply
format ascii 1.0
element face 0
property list uchar int vertex_indices
element vertex 942
property float x
property float y
property float z
property uchar diffuse_red
property uchar diffuse_green
property uchar diffuse_blue
end_header
-2.865567e+00 1.529861e-01 1.121380e+01 13 11 18
-2.850017e+00 1.645279e-01 1.117561e+01 17 13 20
-2.850017e+00 1.645279e-01 1.117561e+01 17 13 20
-2.618140e+00 1.627226e-01 1.115924e+01 142 137 113
-2.002444e+00 1.373308e-01 1.101317e+01 105 98 76
-1.764707e+00 2.726998e-01 1.036454e+01 154 150 151
-9.051932e-01 2.286170e-01 9.975081e+00 164 163 169
-4.537722e-01 1.957096e-01 9.796666e+00 43 42 43
-5.244918e-01 2.107009e-01 9.794037e+00 57 56 70
-6.038242e-01 2.342644e-01 9.849472e+00 62 67 87
-1.071818e+00 2.752908e-01 9.936036e+00 167 167 169
-6.595193e-01 2.501291e-01 9.823911e+00 70 76 100
-7.601071e-01 2.742498e-01 9.810033e+00 79 88 117
-1.783691e+00 3.682978e-01 1.005420e+01 165 158 165
-9.062438e-01 3.087845e-01 9.719756e+00 82 93 128
-9.552177e-01 3.182312e-01 9.706421e+00 83 92 124
-9.552177e-01 3.182312e-01 9.706421e+00 83 92 124
-1.305984e+00 4.051486e-01 9.639716e+00 167 162 166
-1.316575e+00 4.174355e-01 9.586051e+00 64 74 100
-1.514170e+00 4.803710e-01 9.498253e+00 68 76 103
-1.585896e+00 4.887894e-01 9.531089e+00 69 80 109
-1.425816e+00 4.967783e-01 9.447159e+00 163 162 160
-8.902809e-01 6.815436e-01 8.517889e+00 58 68 92
-2.685524e+00 1.447695e+00 1.052876e+01 17 17 15
-8.446173e-01 1.970265e+00 1.051505e+01 247 252 255
-2.889044e+00 1.588972e-01 1.119183e+01 25 19 32
-2.199297e+00 1.193857e-01 1.115046e+01 149 147 126
-1.940304e+00 9.124720e-02 1.111135e+01 75 65 62
-2.564444e+00 1.477132e-01 1.117187e+01 138 135 116
-1.861658e+00 8.564249e-02 1.107693e+01 147 146 126
-1.772232e+00 7.736453e-02 1.105145e+01 35 28 34
-2.062908e+00 1.156953e-01 1.108289e+01 169 165 137
-2.091686e+00 1.226351e-01 1.107312e+01 168 165 142
-2.283060e+00 1.482556e-01 1.110474e+01 40 35 35
-2.070609e+00 1.275905e-01 1.107043e+01 110 101 93
-2.070609e+00 1.275905e-01 1.107043e+01 110 101 93
-2.306886e+00 1.551420e-01 1.108907e+01 37 35 38
-1.844007e+00 1.036322e-01 1.100825e+01 70 62 58
-1.844007e+00 1.036322e-01 1.100825e+01 70 62 58
-2.095213e+00 1.370020e-01 1.105870e+01 107 101 89
-1.349801e+00 4.717178e-02 1.088691e+01 134 131 111
-2.037769e+00 1.477292e-01 1.099767e+01 167 166 138
-2.772170e+00 2.089916e-01 1.103959e+01 29 23 23
-2.772170e+00 2.089916e-01 1.103959e+01 29 23 23
-1.483119e+00 8.344586e-02 1.084909e+01 138 136 120
-1.512401e+00 9.367942e-02 1.084386e+01 138 134 120
-2.144006e+00 1.734767e-01 1.095817e+01 157 150 132
-1.626580e+00 1.240733e-01 1.081993e+01 143 140 128
-1.626580e+00 1.240733e-01 1.081993e+01 143 140 128
-1.305755e+00 8.835660e-02 1.070978e+01 145 142 133
-9.004548e-01 6.893712e-02 1.050805e+01 134 131 116
-1.911168e+00 1.964525e-01 1.074015e+01 155 152 143
-2.109280e+00 2.457787e-01 1.067759e+01 159 155 145
-2.109280e+00 2.457787e-01 1.067759e+01 159 155 145
-7.040789e-01 1.882150e-01 1.007983e+01 155 153 155
-1.911493e+00 3.122908e-01 1.032710e+01 169 166 167
-9.453111e-01 2.403599e-01 9.984738e+00 165 166 171
-1.674709e+00 3.354697e-01 1.007422e+01 153 149 146
-6.996273e-01 2.626903e-01 9.854604e+00 159 160 159
-1.154873e+00 2.914514e-01 9.860703e+00 168 167 172
-1.268276e+00 3.267716e-01 9.848903e+00 167 162 166
-1.024174e+00 3.411006e-01 9.674998e+00 167 166 168
-1.607406e+00 4.152452e-01 9.752868e+00 163 161 165
-1.684621e+00 4.362209e-01 9.800613e+00 158 158 163
-1.638513e+00 4.234217e-01 9.735457e+00 162 159 157
-1.490277e+00 4.215940e-01 9.729224e+00 158 156 154
-1.369717e+00 4.155430e-01 9.646299e+00 163 159 160
-1.565982e+00 4.417598e-01 9.707169e+00 159 157 158
-1.594184e+00 4.489705e-01 9.697988e+00 166 163 163
-1.405605e+00 4.392249e-01 9.597696e+00 159 160 155
-1.441001e+00 4.484783e-01 9.594956e+00 57 61 88
-3.864378e+00 6.020739e-01 9.691163e+00 100 93 103
-3.864378e+00 6.020739e-01 9.691163e+00 100 93 103
-3.925939e+00 6.138828e-01 9.664814e+00 68 66 69
-4.164341e+00 6.628838e-01 9.509430e+00 134 133 130
-3.627204e+00 6.560941e-01 9.462036e+00 126 124 121
-2.657838e+00 8.760934e-01 1.033021e+01 97 86 65
-3.263562e+00 8.124232e-01 8.937325e+00 165 170 176
-6.973414e-01 7.411392e-01 8.146971e+00 59 39 35
-3.474297e+00 9.687599e-01 8.456801e+00 159 166 176
-3.382103e+00 9.729231e-01 8.431408e+00 182 181 184
-3.382103e+00 9.729231e-01 8.431408e+00 182 181 184
-3.451484e+00 1.006839e+00 8.320215e+00 158 165 176
-3.338370e+00 1.042965e+00 8.211813e+00 152 152 161
-3.338370e+00 1.042965e+00 8.211813e+00 152 152 161
-3.626075e+00 1.055735e+00 8.229166e+00 144 145 157
-2.588684e+00 1.346053e+00 1.054474e+01 94 82 56
-2.673211e+00 1.626898e+00 1.056968e+01 16 16 16
-2.673211e+00 1.626898e+00 1.056968e+01 16 16 16
-2.714199e+00 1.660916e+00 1.056978e+01 14 14 12
-2.465441e+00 1.178593e-01 1.124638e+01 137 135 110
-2.465441e+00 1.178593e-01 1.124638e+01 137 135 110
-2.452695e+00 1.246100e-01 1.123297e+01 132 131 109
-2.440949e+00 1.247275e-01 1.122609e+01 30 22 26
-2.511194e+00 1.356568e-01 1.121435e+01 132 132 101
-2.496099e+00 1.346951e-01 1.120048e+01 28 22 25
-2.195600e+00 1.143502e-01 1.118096e+01 61 54 51
-2.152572e+00 1.125566e-01 1.115543e+01 80 73 62
-2.870083e+00 1.611669e-01 1.119378e+01 134 135 102
-2.548896e+00 1.458596e-01 1.118179e+01 24 20 23
-2.180534e+00 1.200544e-01 1.114640e+01 77 68 69
-2.610249e+00 1.548486e-01 1.118307e+01 23 18 16
-2.206593e+00 1.229742e-01 1.112666e+01 71 62 65
-1.941991e+00 9.561780e-02 1.108152e+01 159 154 133
-2.571611e+00 1.565995e-01 1.115706e+01 31 22 36
-2.571611e+00 1.565995e-01 1.115706e+01 31 22 36
-2.650298e+00 1.640605e-01 1.116705e+01 136 133 116
-2.595497e+00 1.634530e-01 1.115076e+01 25 22 24
-2.595497e+00 1.634530e-01 1.115076e+01 25 22 24
-2.256708e+00 1.419855e-01 1.111918e+01 60 51 53
-2.113674e+00 1.241160e-01 1.109511e+01 102 95 82
-2.043802e+00 1.187459e-01 1.108337e+01 111 105 92
-1.267640e+00 2.941511e-02 1.088768e+01 25 20 23
-2.700544e+00 1.860721e-01 1.109841e+01 24 20 17
-9.517743e-01 -1.169286e-02 1.079360e+01 121 122 97
-1.965387e+00 1.321011e-01 1.101032e+01 103 97 78
-2.813831e+00 1.996397e-01 1.107850e+01 26 21 27
-2.813831e+00 1.996397e-01 1.107850e+01 26 21 27
-1.447451e+00 7.504922e-02 1.086211e+01 27 19 33
-1.073840e+00 3.084389e-02 1.075594e+01 37 28 36
-1.073840e+00 3.084389e-02 1.075594e+01 37 28 36
-2.179211e+00 1.712943e-01 1.099008e+01 60 57 53
-2.179211e+00 1.712943e-01 1.099008e+01 60 57 53
-1.488760e+00 9.210208e-02 1.082701e+01 24 25 26
-1.178394e+00 5.801671e-02 1.075086e+01 131 129 113
-1.188657e+00 5.947282e-02 1.074031e+01 34 25 37
-1.635218e+00 1.351562e-01 1.078055e+01 144 144 134
-8.696840e-01 6.281010e-02 1.051414e+01 129 128 110
-1.540579e+00 1.506237e-01 1.065504e+01 157 158 153
-8.752271e-01 7.366298e-02 1.049476e+01 35 27 24
-1.566033e+00 1.574512e-01 1.065037e+01 155 155 154
-1.541619e+00 1.579939e-01 1.062619e+01 54 60 87
-1.998223e+00 2.112373e-01 1.072933e+01 50 47 64
-1.011472e+00 9.539594e-02 1.046533e+01 147 147 146
-1.186559e+00 1.442279e-01 1.044187e+01 159 159 160
-1.467969e+00 1.875362e-01 1.053571e+01 157 155 161
-1.479570e+00 1.914242e-01 1.045537e+01 65 70 101
-6.886093e-01 1.152246e-01 1.022881e+01 48 42 42
-1.607959e+00 2.104638e-01 1.042864e+01 150 148 149
-1.607959e+00 2.104638e-01 1.042864e+01 150 148 149
-1.333503e+00 1.879468e-01 1.038193e+01 74 78 107
-7.458776e-01 1.269285e-01 1.021212e+01 61 59 79
-1.856809e+00 2.767214e-01 1.037993e+01 150 150 147
-6.711858e-01 1.536701e-01 1.007315e+01 147 147 135
-5.836070e-01 1.715495e-01 1.003419e+01 143 140 132
-8.095861e-01 1.953048e-01 1.009794e+01 158 157 158
-9.263742e-01 2.195965e-01 1.001053e+01 163 163 167
-9.263742e-01 2.195965e-01 1.001053e+01 163 163 167
-1.123948e+00 2.675798e-01 9.967005e+00 163 162 164
-1.720171e+00 3.335069e-01 1.012723e+01 149 147 146
-1.331425e+00 3.294769e-01 9.777900e+00 162 160 166
-1.527332e+00 3.728571e-01 9.856855e+00 154 151 157
-1.479339e+00 3.976225e-01 9.773368e+00 154 153 149
-3.762108e+00 5.260259e-01 1.001039e+01 157 156 135
-1.610207e+00 4.030559e-01 9.696547e+00 157 160 162
-4.472781e+00 5.657656e-01 9.892315e+00 116 113 94
-2.449779e-01 3.554374e-01 9.142204e+00 88 99 125
-3.996754e+00 6.275104e-01 9.614834e+00 77 76 79
-1.370610e+00 5.006950e-01 9.375977e+00 70 73 80
-1.472126e+00 5.281626e-01 9.346800e+00 84 92 102
-3.556232e+00 6.363282e-01 9.575744e+00 154 150 137
-3.682733e+00 6.616835e-01 9.498319e+00 151 147 136
-3.650064e+00 6.651387e-01 9.474195e+00 66 64 66
-3.650064e+00 6.651387e-01 9.474195e+00 66 64 66
-3.811451e+00 6.992964e-01 9.370657e+00 78 80 78
-5.839298e-01 5.217754e-01 8.772113e+00 109 117 132
-1.258053e+00 5.864866e-01 8.997012e+00 90 98 117
-5.063267e+00 7.500329e-01 9.257845e+00 134 127 115
-3.989629e+00 7.386302e-01 9.259941e+00 143 144 146
-3.989629e+00 7.386302e-01 9.259941e+00 143 144 146
-4.895370e+00 8.420384e-01 8.921990e+00 141 138 119
-1.720777e-01 1.062537e+00 6.858762e+00 149 145 134
-2.062274e-01 1.123616e+00 6.598480e+00 75 59 44
-2.062274e-01 1.123616e+00 6.598480e+00 75 59 44
-2.717826e+00 1.423872e+00 1.049552e+01 34 34 35
-2.482687e+00 1.483611e+00 1.060779e+01 29 28 24
-2.583880e+00 1.600623e+00 1.064174e+01 14 13 11
-2.583880e+00 1.600623e+00 1.064174e+01 14 13 11
-2.380204e+00 1.784065e+00 1.029936e+01 160 159 172
-8.670823e-01 1.910056e+00 1.061749e+01 107 121 127
-2.432373e+00 1.152690e-01 1.125229e+01 127 128 97
-2.452798e+00 1.171281e-01 1.124991e+01 41 31 38
-2.411597e+00 1.220201e-01 1.122930e+01 46 37 50
-2.526493e+00 1.350495e-01 1.121544e+01 52 39 55
-2.880931e+00 1.532820e-01 1.121186e+01 123 125 87
-1.957436e+00 8.259908e-02 1.114291e+01 69 59 57
-2.648674e+00 1.540543e-01 1.118249e+01 44 36 46
-2.270787e+00 1.330357e-01 1.115296e+01 48 40 42
-2.270787e+00 1.330357e-01 1.115296e+01 48 40 42
-1.931633e+00 9.567139e-02 1.108968e+01 84 76 72
-1.931633e+00 9.567139e-02 1.108968e+01 84 76 72
-2.647563e+00 1.664888e-01 1.115110e+01 133 133 106
-1.283644e+00 2.198362e-02 1.091927e+01 20 19 19
-1.825387e+00 9.717405e-02 1.103804e+01 65 56 74
-2.166123e+00 1.385164e-01 1.107671e+01 89 81 77
-2.166123e+00 1.385164e-01 1.107671e+01 89 81 77
-9.777608e-01 -8.260388e-03 1.081880e+01 27 23 19
-9.777608e-01 -8.260388e-03 1.081880e+01 27 23 19
-2.062563e+00 1.309498e-01 1.104724e+01 116 110 99
-1.372154e+00 4.776756e-02 1.089901e+01 27 22 22
-9.887181e-01 3.119669e-03 1.078421e+01 34 22 22
-1.031991e+00 9.248242e-03 1.079606e+01 43 27 32
-1.326445e+00 5.328988e-02 1.087130e+01 135 133 120
-2.031308e+00 1.390610e-01 1.101337e+01 104 93 94
-9.519069e-01 4.217740e-03 1.076215e+01 45 30 38
-1.032665e+00 1.526261e-02 1.078214e+01 124 123 102
-1.407868e+00 6.594306e-02 1.086193e+01 29 20 27
-1.093867e+00 2.982861e-02 1.076921e+01 127 127 110
-2.271770e+00 1.747358e-01 1.101853e+01 145 144 123
-1.464042e+00 8.357882e-02 1.084840e+01 27 24 20
-1.142780e+00 4.155588e-02 1.076630e+01 35 31 35
-1.146468e+00 4.906040e-02 1.075587e+01 127 127 108
-1.330576e+00 9.183057e-02 1.072345e+01 42 41 56
-1.387594e+00 1.071747e-01 1.070836e+01 61 58 77
-4.102605e+00 2.659240e-01 1.079385e+01 34 33 24
-4.102605e+00 2.659240e-01 1.079385e+01 34 33 24
-1.881628e+00 1.848149e-01 1.076851e+01 34 33 43
-8.519896e-01 6.217918e-02 1.050892e+01 37 32 33
-8.519896e-01 6.217918e-02 1.050892e+01 37 32 33
-1.117878e+00 1.252208e-01 1.045319e+01 76 81 111
-1.117878e+00 1.252208e-01 1.045319e+01 76 81 111
-2.079469e+00 2.344263e-01 1.067171e+01 153 153 142
-2.117658e+00 2.482774e-01 1.064797e+01 55 53 77
-1.434557e+00 1.713152e-01 1.049378e+01 73 75 112
-1.458790e+00 1.817178e-01 1.047093e+01 72 78 105
-1.927892e+00 2.407225e-01 1.056320e+01 61 64 79
-7.131958e-01 1.212413e-01 1.030078e+01 135 133 113
-7.694897e-01 1.268912e-01 1.023499e+01 147 142 139
-2.035222e+00 2.662839e-01 1.052188e+01 57 58 78
-9.086680e-01 1.475463e-01 1.024206e+01 79 85 108
-1.456625e+00 2.100712e-01 1.038153e+01 160 157 164
-1.470727e+00 2.156709e-01 1.034934e+01 71 73 110
-5.642483e-01 1.253453e-01 1.009804e+01 39 34 41
-5.642483e-01 1.253453e-01 1.009804e+01 39 34 41
-7.095847e-01 1.626285e-01 1.006572e+01 71 77 93
-7.205720e-01 1.819197e-01 1.013950e+01 68 69 91
-1.734307e+00 2.801940e-01 1.029919e+01 148 150 138
-1.161015e+00 2.232997e-01 1.013502e+01 79 86 106
-6.040925e-01 1.698183e-01 9.983497e+00 59 64 72
-8.744568e-01 2.052741e-01 1.002605e+01 156 163 159
-1.255208e+00 2.466229e-01 1.012775e+01 75 78 114
-8.518630e-01 2.187909e-01 9.972167e+00 159 162 162
-8.518630e-01 2.187909e-01 9.972167e+00 159 162 162
-1.415959e+00 2.956097e-01 1.013819e+01 156 153 157
-1.522219e+00 3.157205e-01 1.006618e+01 146 148 142
-1.746820e+00 3.392072e-01 1.011035e+01 148 145 146
-1.264409e+00 3.452314e-01 9.850696e+00 162 161 159
-1.264409e+00 3.452314e-01 9.850696e+00 162 161 159
-1.421032e+00 3.554450e-01 9.860777e+00 57 68 85
-1.658992e+00 3.992128e-01 9.774582e+00 155 157 156
-5.701751e-01 3.322260e-01 9.550588e+00 169 170 175
-4.376011e+00 5.446257e-01 9.911342e+00 160 156 138
-2.633758e+00 6.161832e-01 1.027970e+01 68 65 55
-8.965554e-01 4.968232e-01 9.127678e+00 59 79 106
-1.244749e+00 5.305513e-01 9.215504e+00 106 107 109
-3.585100e+00 6.659205e-01 9.485341e+00 154 147 130
-6.281249e-01 5.015697e-01 9.010317e+00 101 112 124
-3.736433e+00 6.722140e-01 9.459292e+00 152 149 136
-3.736433e+00 6.722140e-01 9.459292e+00 152 149 136
-3.631905e+00 6.783620e-01 9.474527e+00 154 152 134
-3.702327e+00 6.739477e-01 9.432424e+00 103 104 100
-3.655954e+00 6.835191e-01 9.458443e+00 156 147 142
-3.964191e+00 7.096531e-01 9.356861e+00 92 90 95
-3.964191e+00 7.096531e-01 9.356861e+00 92 90 95
-6.451612e-01 5.366777e-01 8.858055e+00 88 101 116
-3.796585e+00 7.108944e-01 9.360867e+00 157 153 143
-4.003304e+00 7.188747e-01 9.344825e+00 108 108 119
-4.003304e+00 7.188747e-01 9.344825e+00 108 108 119
-3.993375e+00 7.231851e-01 9.294821e+00 158 152 143
-3.863515e+00 7.249737e-01 9.322532e+00 160 155 147
-3.908600e+00 7.288057e-01 9.268060e+00 162 157 152
-4.049574e+00 7.675471e-01 9.220443e+00 159 156 149
-6.931376e-01 6.084307e-01 8.655844e+00 160 160 155
-8.587305e-01 6.335881e-01 8.665849e+00 52 57 57
-3.688221e+00 8.374074e-01 8.936689e+00 176 172 172
-3.640038e+00 8.479322e-01 8.905644e+00 178 175 179
-3.682275e+00 8.480233e-01 8.894624e+00 109 112 131
-1.111455e+00 7.515445e-01 8.377111e+00 98 109 129
-3.312918e+00 9.560900e-01 8.523498e+00 182 185 188
-3.416200e+00 9.770251e-01 8.429095e+00 179 177 179
-3.416200e+00 9.770251e-01 8.429095e+00 179 177 179
-2.693852e+00 1.070691e+00 1.037858e+01 70 65 52
-3.523951e+00 1.001741e+00 8.377183e+00 180 179 183
-3.554584e+00 1.012080e+00 8.317726e+00 178 179 178
-2.745254e+00 1.141563e+00 1.038479e+01 51 45 43
-3.238311e+00 1.100390e+00 7.951278e+00 175 173 174
-2.733207e+00 1.167022e+00 1.041794e+01 40 39 35
-1.098613e-01 1.056759e+00 6.800012e+00 153 149 139
-1.140991e-01 1.093012e+00 6.668596e+00 76 67 44
-1.628134e-01 1.105733e+00 6.653165e+00 70 64 36
-4.251715e-01 1.131397e+00 6.729254e+00 150 146 135
-2.660651e-01 1.134656e+00 6.616516e+00 84 82 49
-3.684037e-01 1.156403e+00 6.563185e+00 94 87 61
-4.635038e-01 1.186965e+00 6.554375e+00 79 71 53
-2.578386e+00 1.582592e+00 1.062686e+01 17 15 14
-2.652097e+00 1.599828e+00 1.059896e+01 16 15 12
-8.710985e-01 1.927116e+00 1.055655e+01 110 115 134
-2.664753e+00 1.258671e-01 1.127585e+01 140 135 116
-2.770123e+00 1.487895e-01 1.122268e+01 136 133 124
-2.880012e+00 1.541748e-01 1.121381e+01 121 123 85
-2.624540e+00 1.561214e-01 1.119529e+01 123 125 96
-2.624540e+00 1.561214e-01 1.119529e+01 123 125 96
-1.878397e+00 8.360005e-02 1.110314e+01 83 69 82
-1.927190e+00 9.130192e-02 1.109731e+01 147 149 118
-2.172298e+00 1.247868e-01 1.113961e+01 156 152 133
-2.646147e+00 1.600569e-01 1.117132e+01 126 127 94
-2.553554e+00 1.586457e-01 1.116439e+01 65 48 70
-2.842875e+00 1.726001e-01 1.116293e+01 145 140 123
-2.305165e+00 1.637145e-01 1.104665e+01 62 48 74
-1.423021e+00 6.106409e-02 1.088532e+01 42 34 54
-2.787889e+00 2.107331e-01 1.104109e+01 127 132 92
-8.124733e-01 4.027989e-02 1.054996e+01 48 36 48
-1.946619e+00 1.937319e-01 1.077321e+01 36 34 47
-9.288181e-01 7.313392e-02 1.052339e+01 42 39 36
-1.988687e+00 2.156608e-01 1.071092e+01 150 152 148
-1.964879e+00 2.127854e-01 1.069415e+01 63 62 87
-1.964879e+00 2.127854e-01 1.069415e+01 63 62 87
-1.339818e+00 1.525338e-01 1.051037e+01 73 79 99
-1.774382e+00 2.055718e-01 1.061423e+01 50 47 73
-1.396638e+00 1.669573e-01 1.050080e+01 74 80 100
-1.475090e+00 1.785058e-01 1.050597e+01 69 72 103
-1.474478e+00 1.781376e-01 1.050431e+01 69 72 103
-1.849249e+00 2.227175e-01 1.059277e+01 65 64 78
-1.878069e+00 2.302305e-01 1.058391e+01 58 61 79
-1.880228e+00 2.332797e-01 1.059558e+01 58 61 79
-7.336055e-01 1.205099e-01 1.031682e+01 32 33 26
-1.538459e+00 2.021384e-01 1.045734e+01 65 68 90
-1.853394e+00 2.395762e-01 1.052978e+01 66 67 87
-7.030946e-01 1.106614e-01 1.023804e+01 138 128 130
-7.629577e-01 1.194616e-01 1.024773e+01 57 57 65
-1.506730e+00 2.185932e-01 1.038196e+01 67 72 94
-1.696793e+00 2.410382e-01 1.041273e+01 54 58 84
-1.727534e+00 2.565591e-01 1.037539e+01 57 55 78
-6.618264e-01 1.483266e-01 1.008957e+01 58 60 69
-6.618264e-01 1.483266e-01 1.008957e+01 58 60 69
-1.822888e+00 2.780523e-01 1.037710e+01 150 152 142
-1.739234e+00 2.674006e-01 1.034521e+01 147 145 133
-6.911353e-01 1.544174e-01 1.007844e+01 70 70 87
-1.668523e+00 2.632338e-01 1.033488e+01 142 145 132
-1.676741e+00 2.621335e-01 1.032458e+01 44 41 57
-1.954796e+00 2.970376e-01 1.035649e+01 49 52 64
-1.710337e+00 2.745227e-01 1.029388e+01 142 145 127
-1.144741e+00 2.167991e-01 1.014988e+01 76 81 108
-1.158543e+00 2.190881e-01 1.015572e+01 157 162 164
-1.074509e+00 2.128798e-01 1.012904e+01 86 90 119
-5.780218e-01 1.596193e-01 9.987994e+00 54 53 58
-6.137034e-01 1.815421e-01 1.002870e+01 147 148 135
-1.212372e+00 2.375565e-01 1.012024e+01 81 91 117
-6.986723e-01 2.042296e-01 1.003630e+01 154 151 146
-7.890478e-01 2.246109e-01 1.004642e+01 85 89 107
-7.890478e-01 2.246109e-01 1.004642e+01 85 89 107
-9.576724e-01 2.260134e-01 1.000962e+01 159 163 163
-9.376040e-01 2.250977e-01 9.994173e+00 86 91 117
-1.337880e+00 2.661288e-01 1.009640e+01 154 159 163
-7.617443e-01 2.084429e-01 9.934129e+00 82 87 114
-1.347636e+00 2.735529e-01 1.009222e+01 74 79 98
-1.442688e+00 2.872918e-01 1.009273e+01 69 73 112
-1.450421e+00 3.042084e-01 1.006211e+01 73 79 109
-9.047673e-01 2.488023e-01 9.905701e+00 159 167 157
-1.725661e+00 3.309784e-01 1.011211e+01 148 147 137
-1.844405e+00 3.544228e-01 1.008239e+01 79 77 95
-1.252469e+00 3.025915e-01 9.942648e+00 78 83 108
-1.083148e+00 2.902169e-01 9.881392e+00 81 89 116
-1.840221e+00 3.613780e-01 1.005510e+01 157 158 152
-1.138160e+00 3.041307e-01 9.864464e+00 77 84 111
-1.248674e+00 3.333518e-01 9.843486e+00 75 87 111
-1.204314e+00 3.308217e-01 9.819797e+00 81 89 107
-2.852129e-01 2.554857e-01 9.595680e+00 141 135 121
-1.553261e+00 4.167505e-01 9.750876e+00 63 64 76
-1.564561e+00 4.211046e-01 9.750727e+00 155 154 155
-1.586453e+00 4.201870e-01 9.734995e+00 74 82 103
-3.748172e+00 5.826186e-01 9.780397e+00 149 144 126
5.111349e-02 3.933187e-01 8.962019e+00 138 135 141
-1.314157e+00 5.121033e-01 9.316286e+00 66 68 72
-9.595413e-01 4.980804e-01 9.199960e+00 69 75 98
-3.666945e+00 6.497897e-01 9.553994e+00 107 102 107
-3.666945e+00 6.497897e-01 9.553994e+00 107 102 107
-3.701639e+00 6.565049e-01 9.532178e+00 103 101 105
-3.743509e+00 6.657830e-01 9.510490e+00 97 97 103
-3.492446e+00 6.638577e-01 9.508871e+00 149 148 128
-3.749386e+00 6.760117e-01 9.482235e+00 150 146 135
-3.607218e+00 6.763709e-01 9.487520e+00 152 147 128
-5.709861e-01 5.090647e-01 8.882953e+00 108 118 129
-7.338187e-01 5.549260e-01 8.926393e+00 120 120 128
-1.238858e+00 5.931600e-01 9.021026e+00 118 118 126
-1.353315e+00 6.004985e-01 8.995307e+00 161 161 161
-1.353315e+00 6.004985e-01 8.995307e+00 161 161 161
-4.030977e+00 7.636903e-01 9.222545e+00 161 156 152
-2.783048e+00 8.780121e-01 1.027306e+01 61 58 47
-1.061424e+00 6.568513e-01 8.674157e+00 80 95 111
-3.467623e-01 6.142474e-01 8.400248e+00 114 126 154
-3.711823e+00 8.025216e-01 9.046312e+00 168 165 154
-3.711823e+00 8.025216e-01 9.046312e+00 168 165 154
-4.823846e+00 8.418093e-01 9.000510e+00 131 134 100
-3.505465e+00 8.104837e-01 9.007459e+00 109 115 132
-3.765576e+00 8.247493e-01 8.982576e+00 114 114 120
-3.517947e+00 8.222527e-01 8.968246e+00 177 176 182
-4.872722e+00 8.779983e-01 8.846544e+00 81 73 60
-3.843196e+00 8.513906e-01 8.897547e+00 167 164 161
-3.857125e+00 8.555266e-01 8.911898e+00 166 165 159
-3.785495e+00 8.685078e-01 8.821471e+00 110 109 124
-3.785495e+00 8.685078e-01 8.821471e+00 110 109 124
-2.754985e+00 1.000663e+00 1.035539e+01 52 46 39
-3.274149e+00 9.308807e-01 8.583558e+00 182 183 185
-3.192504e+00 9.313113e-01 8.512972e+00 176 177 174
-3.257855e+00 9.452084e-01 8.478333e+00 178 176 172
-3.257855e+00 9.452084e-01 8.478333e+00 178 176 172
-3.312899e+00 9.777726e-01 8.403023e+00 109 115 135
-3.587568e+00 9.931571e-01 8.393055e+00 105 112 129
-2.693728e+00 1.130763e+00 1.043337e+01 43 33 25
-1.201090e+00 1.012102e+00 7.457723e+00 88 113 126
-2.563020e+00 1.244579e+00 1.055526e+01 92 80 65
-4.854572e-01 1.202731e+00 6.532960e+00 156 151 140
-2.712026e+00 1.310577e+00 1.048202e+01 95 83 59
-2.563589e+00 1.321511e+00 1.058508e+01 19 16 17
-2.525546e+00 1.552523e+00 1.067377e+01 45 46 31
-2.287136e+00 1.842322e+00 1.006992e+01 161 163 175
-2.324646e+00 5.973153e-01 1.219166e+01 162 161 126
-1.336475e+00 5.238426e-02 1.086289e+01 56 49 67
-1.336475e+00 5.238426e-02 1.086289e+01 56 49 67
-1.525923e+00 9.218083e-02 1.085875e+01 128 133 101
-1.149372e+00 5.373651e-02 1.073541e+01 59 48 45
-7.981764e-01 4.923192e-02 1.052164e+01 60 53 43
-1.478980e+00 1.367413e-01 1.067619e+01 151 152 146
-1.168785e+00 1.485072e-01 1.041473e+01 160 159 170
-2.060846e+00 2.730371e-01 1.052104e+01 72 71 96
-5.108855e-01 1.853043e-01 9.871687e+00 142 139 127
-8.434119e-01 2.390305e-01 9.995265e+00 147 156 166
-1.515562e+00 3.085162e-01 1.007809e+01 50 52 70
-1.792835e+00 3.431718e-01 1.011331e+01 62 60 83
-1.783401e+00 3.452685e-01 1.011556e+01 141 144 126
-1.211277e+00 2.936455e-01 9.954745e+00 162 163 174
-1.275731e+00 3.060541e-01 9.954091e+00 81 85 114
-1.744747e+00 3.713952e-01 9.998934e+00 48 49 62
-6.670498e-01 2.793178e-01 9.745067e+00 88 101 116
-1.740893e+00 3.793514e-01 9.970657e+00 62 65 87
-3.876324e+00 4.949843e-01 1.008818e+01 81 75 83
-1.005163e+00 3.360255e-01 9.782835e+00 160 161 166
-1.474842e+00 4.043515e-01 9.789697e+00 153 153 154
-1.743792e+00 4.262680e-01 9.815566e+00 74 73 87
-4.323515e+00 5.452930e-01 9.939941e+00 111 100 99
-1.595169e+00 4.267793e-01 9.728459e+00 153 158 155
-4.496492e+00 5.692404e-01 9.862987e+00 134 136 106
-4.496492e+00 5.692404e-01 9.862987e+00 134 136 106
-1.613650e+00 4.401967e-01 9.703658e+00 79 81 106
-1.634826e+00 4.433326e-01 9.706105e+00 82 84 103
-4.490636e+00 5.735169e-01 9.842683e+00 142 137 112
-4.490636e+00 5.735169e-01 9.842683e+00 142 137 112
-1.529835e+00 4.646957e-01 9.582383e+00 158 165 159
-3.818422e+00 5.908127e-01 9.739055e+00 138 137 116
-3.818422e+00 5.908127e-01 9.739055e+00 138 137 116
-3.777520e+00 5.991704e-01 9.767431e+00 79 75 79
-2.775444e+00 6.424118e-01 1.017556e+01 65 63 50
-3.259808e-01 3.956048e-01 9.179978e+00 121 133 155
-3.001028e-01 3.941213e-01 9.115354e+00 167 169 181
-1.338032e+00 4.969366e-01 9.407975e+00 150 147 134
-9.930681e-01 5.103869e-01 9.168888e+00 74 78 87
-3.873455e+00 6.685614e-01 9.519015e+00 154 149 137
-8.808716e-01 5.148561e-01 9.098622e+00 145 147 143
-4.563830e+00 6.874964e-01 9.425249e+00 142 140 113
-3.487162e+00 6.662739e-01 9.483941e+00 82 77 85
-3.890209e+00 6.776088e-01 9.468651e+00 75 75 86
-3.510627e+00 6.852330e-01 9.462649e+00 156 159 145
-3.872260e+00 6.913557e-01 9.423115e+00 99 96 97
-3.784004e+00 7.101139e-01 9.409626e+00 155 154 148
-1.255895e+00 5.854644e-01 9.023611e+00 76 87 106
-2.505193e+00 8.355638e-01 1.028112e+01 66 60 48
-3.593468e+00 7.533592e-01 9.217654e+00 153 158 149
-2.687802e+00 8.829799e-01 1.035869e+01 93 87 61
-3.641515e+00 7.981211e-01 9.058623e+00 127 129 138
-2.780202e+00 9.034610e-01 1.029128e+01 94 87 62
-3.687647e+00 8.144889e-01 8.990563e+00 168 167 162
-3.865520e+00 8.238131e-01 9.005913e+00 162 163 152
-3.875325e+00 8.464674e-01 8.905156e+00 116 115 121
-3.875325e+00 8.464674e-01 8.905156e+00 116 115 121
-3.347658e+00 8.371211e-01 8.894443e+00 109 118 146
-2.759181e+00 9.460232e-01 1.032262e+01 46 43 34
-3.678066e+00 8.554281e-01 8.848977e+00 176 174 175
-2.039324e+00 7.920964e-01 8.669269e+00 112 122 132
-2.632076e+00 1.009780e+00 1.045776e+01 94 83 60
-2.732813e+00 1.019990e+00 1.033588e+01 59 50 43
-2.709728e+00 1.025267e+00 1.037759e+01 97 86 68
-3.231090e+00 9.278690e-01 8.551116e+00 105 115 130
-3.095600e+00 9.303622e-01 8.496185e+00 79 88 97
-3.302411e+00 9.396607e-01 8.542512e+00 104 118 140
-3.302411e+00 9.396607e-01 8.542512e+00 104 118 140
-3.132503e+00 9.339596e-01 8.501872e+00 82 91 103
-3.175328e+00 9.348487e-01 8.512822e+00 86 100 116
-3.294548e+00 9.411231e-01 8.519706e+00 113 123 145
-3.294548e+00 9.411231e-01 8.519706e+00 113 123 145
-3.373822e+00 9.433738e-01 8.530729e+00 117 124 149
-3.434990e+00 9.559793e-01 8.485985e+00 111 119 136
-2.761409e+00 1.046270e+00 1.034358e+01 22 17 18
-2.761409e+00 1.046270e+00 1.034358e+01 22 17 18
-3.194272e+00 9.497864e-01 8.465619e+00 100 102 122
-3.226707e+00 9.568921e-01 8.442770e+00 94 113 127
-3.479684e+00 9.779386e-01 8.420116e+00 113 121 140
-3.446234e+00 9.964891e-01 8.348574e+00 104 112 123
-1.063839e+00 9.228600e-01 7.736373e+00 84 93 102
-3.699870e+00 1.031622e+00 8.277118e+00 124 125 148
-3.642983e+00 1.063572e+00 8.190033e+00 119 126 140
-5.946479e+00 1.187897e+00 7.613816e+00 93 83 66
-5.946479e+00 1.187897e+00 7.613816e+00 93 83 66
-4.016524e+00 1.140527e+00 7.956789e+00 124 121 120
-5.912649e+00 1.211184e+00 7.557091e+00 49 42 27
-5.862724e+00 1.214457e+00 7.499536e+00 53 46 28
-5.770678e-01 1.079350e+00 6.949592e+00 115 113 97
-6.906553e-01 1.117440e+00 6.904445e+00 120 117 116
-5.400960e-01 1.135808e+00 6.751444e+00 104 99 83
-6.107959e-01 1.170852e+00 6.650939e+00 105 105 96
-2.628988e+00 1.251667e+00 1.050217e+01 43 39 32
-2.627142e+00 1.275308e+00 1.052123e+01 90 81 65
-2.677836e+00 1.335257e+00 1.049803e+01 47 41 35
-2.670716e+00 1.342515e+00 1.049145e+01 85 77 58
-2.714915e+00 1.344493e+00 1.048831e+01 33 31 28
-2.680372e+00 1.361025e+00 1.048655e+01 95 87 72
-2.546378e+00 1.499608e+00 1.063830e+01 47 47 37
-2.625571e+00 1.520581e+00 1.060143e+01 61 61 53
-2.569105e+00 1.567586e+00 1.063006e+01 97 90 75
-2.568654e+00 1.564812e+00 1.064966e+01 97 90 75
-2.601285e+00 1.590691e+00 1.061901e+01 20 16 12
-2.635188e+00 1.591564e+00 1.060717e+01 90 89 73
-2.556846e+00 1.614426e+00 1.066703e+01 19 16 11
-2.556846e+00 1.614426e+00 1.066703e+01 19 16 11
-2.488332e+00 1.657739e+00 1.070024e+01 139 132 126
-2.138786e+00 1.485980e-01 1.104671e+01 114 108 87
-2.861017e+00 2.311261e-01 1.102997e+01 152 148 128
-1.146229e+00 6.045567e-02 1.073665e+01 134 134 126
3.226240e+00 -4.391154e+00 -1.731962e+00 137 135 143
-2.022077e+00 2.075858e-01 1.074324e+01 76 70 96
-9.390924e-01 1.063516e-01 1.058262e+01 64 54 79
-2.055177e+00 2.282393e-01 1.070601e+01 141 145 131
-8.248862e-01 1.528937e-01 1.032293e+01 140 141 135
-1.397103e+00 1.957782e-01 1.037062e+01 146 145 152
-8.146494e-01 1.527924e-01 1.029945e+01 95 91 103
-1.703066e+00 2.352858e-01 1.041843e+01 137 133 127
-1.848908e+00 2.748893e-01 1.041626e+01 75 76 101
-3.693367e+00 3.989031e-01 1.045910e+01 96 95 74
-1.809612e+00 2.942622e-01 1.028975e+01 142 142 132
-6.849994e-01 2.071986e-01 1.002326e+01 103 103 110
-6.849994e-01 2.071986e-01 1.002326e+01 103 103 110
-4.807201e-01 2.210194e-01 9.807284e+00 139 138 133
-1.217401e+00 2.944939e-01 9.946588e+00 159 158 158
-1.208168e+00 2.966946e-01 9.923220e+00 102 108 121
-1.839623e+00 3.680760e-01 1.003594e+01 101 98 107
-4.333001e+00 5.384648e-01 9.954881e+00 112 106 101
-5.951081e-01 3.298461e-01 9.575336e+00 112 115 130
-4.407830e+00 5.560352e-01 9.897406e+00 106 96 97
-3.722061e+00 5.736853e-01 9.806584e+00 77 70 71
-2.571082e-01 3.633887e-01 9.227968e+00 127 136 143
-2.164546e-01 3.461695e-01 9.147964e+00 127 136 143
-7.293552e+00 -4.096175e-01 3.491279e+00 70 65 53
-3.802243e+00 5.875430e-01 9.763205e+00 64 59 57
-3.802243e+00 5.875430e-01 9.763205e+00 64 59 57
-7.321406e+00 -3.965472e-01 3.449004e+00 143 147 120
-3.867649e+00 6.084361e-01 9.702671e+00 66 64 71
-3.538077e+00 6.492901e-01 9.549146e+00 80 70 78
-3.476198e+00 6.578263e-01 9.519542e+00 85 84 72
-1.477129e+00 5.782138e-01 9.252915e+00 104 105 117
-3.506293e+00 6.815256e-01 9.433786e+00 80 80 83
-3.944724e+00 7.037614e-01 9.355440e+00 152 148 145
-1.365308e+00 5.941249e-01 9.052885e+00 100 116 133
-3.903795e+00 7.150496e-01 9.328670e+00 86 86 85
3.030827e-01 4.857527e-01 8.434150e+00 154 166 188
-3.572507e+00 7.495525e-01 9.223940e+00 165 162 166
1.371361e-02 5.595941e-01 8.366109e+00 153 164 189
-2.678951e+00 8.780646e-01 1.033109e+01 92 80 61
-8.702739e-01 6.436849e-01 8.656557e+00 77 78 83
-2.681043e+00 9.004309e-01 1.033309e+01 58 49 40
-2.773112e+00 8.952053e-01 1.024732e+01 95 85 60
-3.477053e+00 8.028531e-01 9.046011e+00 105 109 125
-4.815385e+00 8.518804e-01 9.135678e+00 142 138 111
-3.223027e+00 8.109271e-01 8.969253e+00 103 104 122
-3.332207e+00 8.250106e-01 8.939383e+00 97 104 129
-3.628745e+00 8.334773e-01 8.932911e+00 98 105 117
-8.786351e-01 6.998453e-01 8.128541e+00 164 163 158
-3.633271e+00 9.049957e-01 8.710748e+00 182 183 188
-3.764343e+00 9.213609e-01 8.654180e+00 175 173 180
-2.656993e+00 1.012559e+00 1.038173e+01 81 72 53
-2.770121e+00 1.014051e+00 1.033718e+01 93 88 66
-3.172199e+00 9.176637e-01 8.578951e+00 109 112 119
-3.172199e+00 9.176637e-01 8.578951e+00 109 112 119
-3.085061e+00 9.194724e-01 8.531595e+00 158 157 158
-3.228301e+00 9.418810e-01 8.565683e+00 180 177 184
-3.336223e+00 9.458790e-01 8.494976e+00 127 132 154
-3.417740e+00 9.982236e-01 8.345970e+00 170 173 178
-3.508837e+00 1.001595e+00 8.337725e+00 173 172 170
-3.113359e+00 9.932937e-01 8.312259e+00 100 106 101
-3.167961e+00 9.994505e-01 8.272104e+00 162 159 160
-3.142141e+00 1.001506e+00 8.281246e+00 90 99 100
-3.152324e+00 1.007815e+00 8.260247e+00 165 167 167
-3.168725e+00 1.009789e+00 8.244343e+00 102 105 106
-3.447838e+00 1.019965e+00 8.294121e+00 113 119 135
-3.285083e+00 1.020837e+00 8.263622e+00 169 173 171
-3.400886e+00 1.063258e+00 8.144150e+00 119 122 133
-3.904582e+00 1.082948e+00 8.169667e+00 131 129 134
-4.065964e+00 1.101075e+00 8.063460e+00 133 132 135
-3.524503e+00 1.088495e+00 8.102962e+00 173 178 186
-3.255973e+00 1.086526e+00 8.017602e+00 166 169 172
-6.572408e-01 1.012696e+00 7.211865e+00 129 134 128
-1.720853e+00 1.058392e+00 7.600634e+00 138 144 150
-3.136671e-01 1.015936e+00 7.042724e+00 118 114 97
-3.136671e-01 1.015936e+00 7.042724e+00 118 114 97
-3.264041e+00 1.134452e+00 7.880000e+00 142 148 162
-4.184395e+00 1.162718e+00 7.898637e+00 157 162 168
-3.969322e-01 1.034803e+00 7.012769e+00 107 105 86
-3.498592e-01 1.078916e+00 6.844354e+00 113 111 94
-5.681043e+00 1.300166e+00 7.283123e+00 99 88 66
-5.818584e+00 1.304678e+00 7.223080e+00 89 81 64
-5.282123e+00 1.400629e+00 7.004862e+00 58 54 45
-2.732086e+00 1.319826e+00 1.044096e+01 89 79 61
-2.611578e+00 1.341403e+00 1.056524e+01 94 82 65
-2.614947e+00 1.388758e+00 1.056405e+01 29 19 12
-2.541544e+00 1.558685e+00 1.064412e+01 88 84 73
-2.656414e+00 1.591791e+00 1.058056e+01 19 18 10
-2.691181e+00 1.623399e+00 1.056646e+01 79 78 67
-2.691181e+00 1.623399e+00 1.056646e+01 79 78 67
-2.590593e+00 1.628201e+00 1.063544e+01 25 23 11
-2.590593e+00 1.628201e+00 1.063544e+01 25 23 11
-2.704000e+00 1.644884e+00 1.057669e+01 80 76 65
-2.636401e+00 1.639067e+00 1.062467e+01 88 86 70
-2.685774e+00 1.644493e+00 1.059208e+01 97 95 82
-2.685774e+00 1.644493e+00 1.059208e+01 97 95 82
-2.495455e+00 1.652468e+00 1.071194e+01 47 43 31
-2.517344e+00 1.509905e+00 9.966058e+00 22 22 17
-3.404277e+00 3.339068e-01 1.059209e+01 99 97 77
-1.563619e+00 5.582038e-01 9.027998e+00 177 175 180
-2.547016e+00 6.147712e-01 1.021135e+01 99 78 57
-2.750286e+00 8.239411e-01 1.024891e+01 50 50 38
-1.682456e+00 1.656650e-01 1.074095e+01 160 157 152
-1.552106e+00 1.855943e-01 1.057051e+01 159 158 156
-2.202373e+00 1.819928e-01 1.089790e+01 41 34 41
-6.943808e-01 5.099405e-01 9.064764e+00 117 124 137
-3.536901e+00 3.885963e-01 1.059291e+01 160 156 145
-2.472839e+00 5.334527e-01 9.998060e+00 31 27 27
-1.615884e+00 1.663456e-01 1.080105e+01 160 157 152
-1.184368e+00 4.109953e-01 9.517272e+00 176 177 182
-3.332005e+00 3.457911e-01 1.062834e+01 110 67 50
-1.369673e+00 4.702234e-01 9.428316e+00 179 178 184
-1.367940e+00 4.677975e-01 9.410900e+00 179 178 184
-1.203775e+00 4.740835e-01 9.250152e+00 120 131 137
-3.543834e+00 3.981664e-01 1.058352e+01 157 153 142
-2.237315e+00 1.431642e+00 9.874479e+00 28 30 25
-1.738093e+00 1.635335e-01 1.083378e+01 64 57 70
-1.738093e+00 1.635335e-01 1.083378e+01 64 57 70
-2.253341e+00 1.586035e-01 1.106435e+01 150 147 132
-9.510701e-01 2.341593e-01 1.031392e+01 159 157 158
-9.953564e-01 2.435469e-01 1.028373e+01 159 157 160
-9.953564e-01 2.435469e-01 1.028373e+01 159 157 160
-1.449242e+00 3.343103e-01 1.003141e+01 158 157 155
-1.158708e+00 3.652116e-01 9.823302e+00 170 170 172
-1.326185e+00 4.702904e-01 9.591023e+00 180 179 184
-1.460043e+00 4.956990e-01 9.392160e+00 178 178 179
-2.569946e+00 1.436520e+00 1.052159e+01 18 19 14
-2.569946e+00 1.436520e+00 1.052159e+01 18 19 14
-1.701841e+00 1.604908e-01 1.085068e+01 156 153 144
-1.336485e+00 1.814685e-01 1.056502e+01 162 161 159
-9.505988e-01 1.917425e-01 1.034913e+01 79 73 113
-9.505988e-01 1.917425e-01 1.034913e+01 79 73 113
-2.888725e+00 1.782020e-01 1.114319e+01 151 145 129
-1.521895e+00 2.126483e-01 1.050594e+01 160 159 155
-7.425540e-01 2.515196e-01 9.948211e+00 165 165 170
-1.044641e+00 2.870803e-01 1.007448e+01 164 162 165
-1.044641e+00 2.870803e-01 1.007448e+01 164 162 165
-8.915655e-01 2.840060e-01 9.903657e+00 162 161 162
-1.040663e+00 3.301563e-01 9.927237e+00 164 163 162
-1.913816e+00 3.038541e-01 1.027506e+01 171 169 172
-1.323779e+00 3.492221e-01 9.917373e+00 168 168 170
-1.475405e+00 5.369060e-01 9.270986e+00 81 91 100
-2.819697e+00 4.751685e-01 1.008192e+01 31 32 26
-2.767615e+00 5.168418e-01 1.013073e+01 93 80 59
-2.592097e+00 1.290251e+00 1.049466e+01 107 93 72
-2.537037e+00 1.534438e+00 1.062058e+01 17 18 13
-2.492643e+00 1.650166e+00 1.063030e+01 93 78 57
-2.160510e+00 1.647588e-01 1.102082e+01 155 151 140
-2.302168e+00 1.771780e-01 1.101955e+01 156 149 143
-1.367614e+00 1.804243e-01 1.050259e+01 161 161 159
-2.875519e+00 1.527530e-01 1.117709e+01 18 16 17
-1.952342e+00 2.099031e-01 1.074392e+01 161 158 151
-8.171701e-01 2.538578e-01 1.022197e+01 161 162 167
-2.762667e+00 2.028538e-01 1.106065e+01 155 148 130
-1.528303e+00 2.417113e-01 1.042038e+01 109 107 115
-1.861779e+00 2.340728e-01 1.056977e+01 91 93 106
-1.621087e+00 2.435581e-01 1.042396e+01 156 155 150
-6.475037e-01 2.477748e-01 9.878015e+00 166 167 172
-7.773610e-01 3.058374e-01 1.000989e+01 60 72 104
-7.773610e-01 3.058374e-01 1.000989e+01 60 72 104
-1.303340e+00 3.258805e-01 9.994073e+00 84 81 100
-1.773864e+00 3.406752e-01 1.008838e+01 60 58 55
-8.938458e-01 3.913134e-01 9.563778e+00 87 100 117
-8.938458e-01 3.913134e-01 9.563778e+00 87 100 117
-1.475731e+00 3.774328e-01 9.848294e+00 166 164 165
-1.475731e+00 3.774328e-01 9.848294e+00 166 164 165
-1.266796e+00 4.069776e-01 9.625767e+00 61 73 103
-1.579262e+00 4.036365e-01 9.797519e+00 163 161 159
-1.622573e+00 4.995665e-01 9.493076e+00 178 177 183
-2.548978e+00 7.032850e-01 1.024965e+01 58 50 37
-4.176664e+00 5.307940e-01 1.009471e+01 61 56 53
-4.274214e+00 6.010719e-01 1.013977e+01 110 104 96
-4.274214e+00 6.010719e-01 1.013977e+01 110 104 96
-2.523643e+00 9.041273e-01 1.036290e+01 42 35 27
-2.523643e+00 9.041273e-01 1.036290e+01 42 35 27
-4.556833e-01 1.237618e-01 1.014050e+01 154 159 168
-5.012109e-01 1.382099e-01 1.012941e+01 158 163 164
-5.540169e-01 1.435577e-01 1.016534e+01 157 159 171
-5.540169e-01 1.435577e-01 1.016534e+01 157 159 171
-5.540169e-01 1.435577e-01 1.016534e+01 157 159 171
-5.736391e-01 1.590176e-01 1.014103e+01 161 164 171
-2.860162e+00 1.617641e-01 1.113650e+01 24 17 24
-2.860162e+00 1.617641e-01 1.113650e+01 24 17 24
-6.132280e-01 2.052968e-01 1.003561e+01 164 165 170
-1.465408e+00 2.115984e-01 1.050531e+01 157 157 152
-1.465408e+00 2.115984e-01 1.050531e+01 157 157 152
-2.724007e+00 1.883965e-01 1.108614e+01 147 145 126
-4.797354e-01 2.050795e-01 9.899809e+00 162 165 169
-8.237430e-01 2.254013e-01 1.008972e+01 160 158 163
-8.560179e-01 2.560073e-01 1.019350e+01 160 158 163
-1.580713e+00 2.288082e-01 1.044520e+01 159 158 154
-1.656818e+00 2.505465e-01 1.042591e+01 156 155 150
-9.913570e-01 2.783774e-01 1.011971e+01 163 161 167
-8.115564e-01 2.934597e-01 9.864164e+00 161 162 163
-9.294607e-01 3.340692e-01 9.885380e+00 165 163 166
-9.294607e-01 3.340692e-01 9.885380e+00 165 163 166
-1.190677e+00 3.228067e-01 9.993505e+00 166 167 170
-1.266840e+00 3.457098e-01 9.989036e+00 167 167 167
-1.290239e+00 3.461656e-01 9.942841e+00 166 166 169
-1.828248e+00 3.202435e-01 1.006095e+01 180 183 183
-1.046184e+00 3.731745e-01 9.688235e+00 72 82 117
-1.046184e+00 3.731745e-01 9.688235e+00 72 82 117
-1.096411e+00 3.850377e-01 9.692304e+00 67 78 110
-1.201105e+00 3.909953e-01 9.764942e+00 70 81 112
-1.201105e+00 3.909953e-01 9.764942e+00 70 81 112
-1.457680e+00 3.692620e-01 9.788015e+00 162 160 161
-1.312090e+00 4.099667e-01 9.662267e+00 173 173 173
-3.331614e+00 3.329703e-01 1.079611e+01 83 80 62
-1.316744e+00 4.215409e-01 9.583698e+00 59 70 98
-1.367524e+00 4.330335e-01 9.587651e+00 59 72 104
-1.638254e+00 4.175965e-01 9.730419e+00 164 162 163
-1.509573e+00 4.779862e-01 9.472828e+00 51 60 85
-1.570131e+00 4.713165e-01 9.404787e+00 59 64 91
-6.698482e-01 5.500291e-01 8.860604e+00 73 85 110
-1.310346e+00 5.409160e-01 9.229066e+00 151 108 130
-3.622790e+00 4.376400e-01 1.062972e+01 152 153 139
-2.376282e+00 5.857826e-01 9.672171e+00 48 47 44
-2.376282e+00 5.857826e-01 9.672171e+00 48 47 44
-3.996885e+00 6.504874e-01 9.684084e+00 104 99 93
-3.879012e+00 7.088535e-01 9.570738e+00 158 150 135
-4.086456e+00 7.151063e-01 9.651028e+00 152 143 134
-3.899877e+00 8.832802e-01 8.894332e+00 170 171 165
-3.899877e+00 8.832802e-01 8.894332e+00 170 171 165
-4.006510e+00 9.255732e-01 8.725377e+00 157 152 138
-2.500373e+00 1.259216e+00 1.048787e+01 23 24 19
-2.515990e+00 1.260243e+00 1.041710e+01 23 24 19
-2.676826e+00 1.603891e+00 1.055956e+01 82 80 65
-2.275133e+00 1.419668e-01 1.112238e+01 145 142 123
-2.147724e+00 1.536582e-01 1.104873e+01 48 38 51
-1.557098e+00 1.718226e-01 1.072218e+01 155 155 146
-1.229686e+00 1.869027e-01 1.057997e+01 157 156 152
-1.229686e+00 1.869027e-01 1.057997e+01 157 156 152
-1.209525e+00 1.933801e-01 1.057894e+01 56 57 73
-2.146431e+00 1.688183e-01 1.094254e+01 157 155 136
-2.146431e+00 1.688183e-01 1.094254e+01 157 155 136
-2.155199e+00 1.730359e-01 1.091216e+01 53 44 54
-2.189067e+00 1.742819e-01 1.091276e+01 35 30 36
-2.172816e+00 1.764805e-01 1.090962e+01 156 156 140
-1.653974e+00 1.890784e-01 1.066695e+01 158 157 154
-2.231302e+00 1.820484e-01 1.092047e+01 28 20 30
-1.465516e+00 1.879137e-01 1.053935e+01 159 158 152
-5.985901e-01 1.815008e-01 1.007048e+01 158 160 172
-2.214617e+00 1.930123e-01 1.089371e+01 24 20 24
-1.498802e+00 2.151865e-01 1.048198e+01 159 158 152
-1.479460e+00 2.308014e-01 1.044873e+01 156 157 152
-2.013097e+00 2.598426e-01 1.049770e+01 160 159 154
-1.750807e+00 2.691246e-01 1.033758e+01 158 155 150
-8.853052e-01 3.293501e-01 9.926168e+00 162 162 159
-8.853052e-01 3.293501e-01 9.926168e+00 162 162 159
-1.162786e+00 3.093819e-01 1.000756e+01 167 166 166
-1.208527e+00 3.199897e-01 9.983523e+00 169 167 171
-9.806637e-01 3.485884e-01 9.871725e+00 167 166 166
-5.818733e-01 3.835907e-01 9.621799e+00 164 162 165
-1.054352e+00 3.653201e-01 9.777695e+00 173 171 178
-1.105070e+00 3.828427e-01 9.792514e+00 174 172 175
-1.275837e+00 3.947316e-01 9.714888e+00 172 174 172
-1.347593e+00 4.259281e-01 9.693582e+00 61 72 98
-1.487418e+00 4.159768e-01 9.693949e+00 168 168 169
-1.608301e+00 4.153597e-01 9.757388e+00 163 162 158
-1.676604e+00 4.190936e-01 9.713551e+00 165 161 159
-1.561904e+00 4.381870e-01 9.682898e+00 166 165 163
-1.441999e+00 4.439403e-01 9.592468e+00 58 69 94
-1.441999e+00 4.439403e-01 9.592468e+00 58 69 94
-1.491019e+00 4.553643e-01 9.592333e+00 55 64 94
-1.491019e+00 4.553643e-01 9.592333e+00 55 64 94
-1.612077e+00 4.414433e-01 9.608450e+00 169 169 168
-1.453558e+00 4.271593e-01 9.367540e+00 56 68 95
-1.453558e+00 4.271593e-01 9.367540e+00 56 68 95
-1.570230e+00 4.614098e-01 9.531018e+00 173 169 167
-1.570230e+00 4.614098e-01 9.531018e+00 173 169 167
-1.475355e+00 4.783169e-01 9.493104e+00 171 172 170
-1.552326e+00 4.705959e-01 9.485896e+00 172 168 169
-8.118636e-01 5.438294e-01 8.992199e+00 74 90 117
-1.027386e+00 5.504167e-01 9.070390e+00 77 94 122
-3.623329e+00 4.126336e-01 1.062138e+01 55 53 31
-3.623329e+00 4.126336e-01 1.062138e+01 55 53 31
-3.511220e+00 4.227412e-01 1.055549e+01 82 75 84
-2.822985e+00 6.318485e-01 1.012838e+01 34 34 31
-1.353957e+00 8.892384e-01 7.890734e+00 86 102 128
-3.753231e+00 6.954174e-01 9.457392e+00 108 104 102
-3.380955e+00 8.205398e-01 8.791169e+00 116 128 152
-3.380955e+00 8.205398e-01 8.791169e+00 116 128 152
-3.641590e+00 1.011996e+00 8.200517e+00 189 192 199
-3.738342e+00 1.019542e+00 8.208543e+00 127 132 150
-3.669958e+00 1.041810e+00 8.070613e+00 127 142 163
-2.500205e+00 1.290692e+00 1.051266e+01 20 21 17
-2.211568e+00 1.785645e+00 9.875551e+00 25 26 21
-2.628146e+00 1.611824e+00 1.060039e+01 17 17 15
-2.472169e+00 1.627061e+00 1.062320e+01 19 21 16
-2.472169e+00 1.627061e+00 1.062320e+01 19 21 16
-2.649962e+00 1.618774e+00 1.057752e+01 17 19 17
-4.657366e-01 1.068421e-01 1.019615e+01 84 85 114
-4.433935e-01 1.154020e-01 1.014877e+01 85 90 121
-2.165333e+00 1.517312e-01 1.105529e+01 147 150 127
-2.283026e+00 1.500625e-01 1.110424e+01 33 27 35
-8.633687e-01 1.995235e-01 1.047374e+01 154 154 162
-1.762555e+00 1.695228e-01 1.082240e+01 150 151 137
-8.429897e-01 2.017122e-01 1.045649e+01 71 74 105
-8.429897e-01 2.017122e-01 1.045649e+01 71 74 105
-5.712018e-01 1.442267e-01 1.015858e+01 85 86 115
-1.538908e+00 1.757939e-01 1.068601e+01 161 162 156
-1.538908e+00 1.757939e-01 1.068601e+01 161 162 156
-1.557870e+00 1.805371e-01 1.069721e+01 47 42 63
-1.557870e+00 1.805371e-01 1.069721e+01 47 42 63
-4.594629e-01 1.486530e-01 1.007378e+01 83 88 125
-4.594629e-01 1.486530e-01 1.007378e+01 83 88 125
-1.819459e+00 1.811155e-01 1.081101e+01 153 153 133
-1.231109e+00 1.943088e-01 1.055247e+01 54 53 85
-1.397873e+00 1.763145e-01 1.057007e+01 52 49 76
-2.603712e+00 1.560774e-01 1.110882e+01 34 26 41
-9.046471e-01 1.728984e-01 1.029208e+01 60 61 82
-9.242590e-01 1.867438e-01 1.034372e+01 60 61 82
-9.046471e-01 1.728984e-01 1.029208e+01 60 61 82
-1.629824e+00 1.899164e-01 1.068978e+01 157 155 147
-2.876287e+00 1.519235e-01 1.119503e+01 24 20 20
-1.457692e+00 1.926874e-01 1.057701e+01 57 55 72
-2.851005e+00 1.558639e-01 1.117570e+01 146 142 118
-7.094470e-01 1.771908e-01 1.015511e+01 157 161 163
-1.862988e+00 1.917469e-01 1.076825e+01 157 155 140
-1.682432e+00 1.961962e-01 1.065702e+01 155 157 147
-2.894789e+00 1.610434e-01 1.116596e+01 32 25 34
-6.092275e-01 1.894198e-01 1.005417e+01 79 85 121
-1.935575e+00 2.000381e-01 1.075912e+01 34 29 41
-1.008818e+00 2.342499e-01 1.037714e+01 55 59 77
-1.497419e+00 2.132261e-01 1.053136e+01 51 49 74
-2.748410e+00 1.807526e-01 1.108571e+01 44 34 38
-2.582321e+00 2.086110e-01 1.099234e+01 158 154 144
-1.498818e+00 2.240034e-01 1.043489e+01 46 48 64
-1.124181e+00 2.501953e-01 1.028861e+01 52 57 78
-1.838278e+00 2.307353e-01 1.059867e+01 160 160 152
-9.186690e-01 2.428156e-01 1.011249e+01 54 56 86
-2.805604e+00 2.106424e-01 1.098635e+01 52 39 63
-2.803146e+00 2.155878e-01 1.099327e+01 52 39 63
-2.357674e-01 2.445622e-01 9.617800e+00 160 165 170
-9.699635e-01 2.783763e-01 1.000467e+01 162 162 160
-1.735090e+00 2.610466e-01 1.035303e+01 154 154 144
-1.157231e+00 2.975484e-01 1.008400e+01 165 164 166
-1.157231e+00 2.975484e-01 1.008400e+01 165 164 166
-8.226673e-01 3.177729e-01 9.938188e+00 162 162 164
-1.737400e+00 2.802046e-01 1.030630e+01 153 151 146
-1.713645e+00 2.836471e-01 1.029021e+01 35 37 51
-1.415851e+00 2.954247e-01 1.014092e+01 154 156 146
-1.490773e+00 3.077241e-01 1.012614e+01 42 43 67
-1.195056e+00 3.388392e-01 9.933270e+00 165 164 169
-1.421605e+00 3.462657e-01 9.898853e+00 163 160 167
-1.452146e+00 3.763632e-01 9.837746e+00 169 167 171
-1.140641e+00 3.900047e-01 9.664849e+00 173 175 173
-1.146061e+00 3.962939e-01 9.693016e+00 173 175 173
-1.140641e+00 3.900047e-01 9.664849e+00 173 175 173
-1.474812e+00 3.914171e-01 9.741073e+00 165 165 165
-1.188230e+00 4.948119e-01 9.275992e+00 66 94 133
-1.021659e+00 5.130907e-01 9.187358e+00 80 98 118
-1.363990e+00 4.909221e-01 9.311635e+00 92 106 127
-1.061995e+00 5.377274e-01 9.124861e+00 165 167 173
-1.427327e+00 5.144035e-01 9.264003e+00 177 173 173
-3.578347e+00 4.099304e-01 1.060021e+01 155 153 142
-3.580271e+00 4.189447e-01 1.057040e+01 158 150 143
-3.590872e+00 4.213032e-01 1.058506e+01 38 31 36
-2.754556e+00 4.894119e-01 1.011448e+01 96 86 59
-2.514521e+00 5.058155e-01 9.963184e+00 26 26 23
-2.514521e+00 5.058155e-01 9.963184e+00 26 26 23
-1.349052e-01 8.420427e-01 7.708910e+00 169 169 169
-3.713719e+00 5.587558e-01 1.013269e+01 165 163 149
-2.547728e+00 7.529722e-01 1.026120e+01 62 51 40
-2.547728e+00 7.529722e-01 1.026120e+01 62 51 40
-2.657459e-01 8.552664e-01 7.665162e+00 111 118 111
-1.858382e+00 7.397446e-01 8.623085e+00 160 167 176
6.689337e-02 1.057338e+00 6.850148e+00 94 80 74
-3.686100e+00 6.752670e-01 9.612415e+00 111 111 105
-3.464160e-02 1.052483e+00 6.858917e+00 159 156 153
-3.685574e+00 6.839457e-01 9.574640e+00 162 157 140
-8.223643e-02 1.063908e+00 6.835682e+00 159 155 155
-3.715307e+00 6.891606e-01 9.476443e+00 116 111 109
-4.058281e-02 1.081217e+00 6.820547e+00 90 75 72
-3.982582e+00 6.795848e-01 9.777968e+00 71 67 64
-4.057814e+00 6.616022e-01 9.642576e+00 71 67 64
-3.816401e+00 6.997816e-01 9.459689e+00 161 155 139
-2.292629e-01 1.103175e+00 6.747854e+00 177 176 182
-3.851468e+00 7.071527e-01 9.441804e+00 160 152 136
-3.814209e+00 7.156085e-01 9.515512e+00 160 152 136
-3.859342e+00 7.119775e-01 9.572504e+00 157 151 136
-2.609531e+00 9.319217e-01 1.034323e+01 105 93 70
-3.888725e+00 7.171107e-01 9.416531e+00 155 152 133
-3.932261e+00 7.353098e-01 9.497050e+00 93 93 91
-3.944761e+00 7.470507e-01 9.442440e+00 156 150 136
-4.037709e+00 7.366522e-01 9.364558e+00 124 121 117
-3.423052e+00 8.354631e-01 8.795856e+00 121 135 163
-3.991680e+00 7.803574e-01 9.347480e+00 156 146 133
-1.730503e+00 1.074206e+00 7.359366e+00 141 154 174
-1.730503e+00 1.074206e+00 7.359366e+00 141 154 174
-4.788742e+00 7.886814e-01 9.650339e+00 146 136 124
-3.577974e+00 9.949202e-01 8.209964e+00 193 194 199
-3.577974e+00 9.949202e-01 8.209964e+00 193 194 199
-2.602376e+00 1.106969e+00 1.043842e+01 53 45 34
-2.599921e+00 1.135009e+00 1.045513e+01 41 32 24
-4.460667e+00 9.730812e-01 8.877745e+00 66 70 45
-2.726722e+00 1.174029e+00 1.036129e+01 96 81 60
-2.726722e+00 1.174029e+00 1.036129e+01 96 81 60
-2.521895e+00 1.205116e+00 1.041157e+01 59 47 35
-4.486856e+00 1.098632e+00 8.262803e+00 156 155 141
-4.360657e+00 1.167983e+00 7.987593e+00 139 124 93
-2.564241e+00 1.310144e+00 1.054028e+01 103 90 64
-5.413484e+00 1.208747e+00 7.819222e+00 100 89 67
-2.488539e+00 1.429357e+00 1.045902e+01 51 49 36
-2.402559e+00 1.514361e+00 1.022354e+01 51 48 39
-2.351762e+00 1.589689e+00 1.022584e+01 65 65 57
-2.755235e+00 1.543135e+00 1.046206e+01 117 110 95
-1.500246e+00 1.526228e-01 1.077644e+01 152 152 133
-4.899383e-01 1.124254e-01 1.019429e+01 81 83 114
-1.475949e+00 1.608384e-01 1.075554e+01 51 48 66
-2.275662e+00 1.543386e-01 1.108217e+01 58 45 72
-8.291764e-01 1.620107e-01 1.039980e+01 65 66 97
-1.555286e+00 1.739073e-01 1.076421e+01 47 42 67
-2.099385e+00 1.561761e-01 1.097698e+01 138 143 106
-5.349188e-01 1.368250e-01 1.016244e+01 87 90 124
