ply
format ascii 1.0
element face 0
property list uchar int vertex_indices
element vertex 946
property float x
property float y
property float z
property uchar diffuse_red
property uchar diffuse_green
property uchar diffuse_blue
end_header
8.436578e+00 6.541334e+00 -1.189599e+01 125 125 136
9.865699e+00 6.465998e+00 -8.994059e+00 18 22 26
9.146077e+00 8.254615e+00 -7.346420e+00 255 255 255
-2.888400e+00 4.995587e-01 1.081512e+01 78 66 44
8.384816e+00 5.944289e+00 -9.420879e+00 136 136 148
8.094029e+00 5.820425e+00 -8.812757e+00 136 136 148
-1.518269e+00 1.863866e-01 1.109722e+01 149 148 143
4.019538e+00 6.330638e+00 -9.412603e+00 122 117 114
9.607120e+00 6.199312e+00 -8.605165e+00 16 16 19
9.637114e+00 6.207760e+00 -8.660346e+00 16 16 19
9.703491e+00 6.940299e+00 -8.467079e+00 32 35 44
-2.873420e+00 6.505014e-02 1.198084e+01 145 140 118
-1.039229e+00 7.760212e-02 1.136608e+01 160 159 160
-3.208788e-01 2.220335e-01 1.068731e+01 77 84 112
-4.352766e-01 2.525481e-01 1.061438e+01 84 95 123
-7.305631e-01 3.142064e-01 1.047753e+01 78 87 113
-1.357661e+00 3.698995e-01 1.045256e+01 157 155 158
-4.174708e+00 6.522327e-01 1.041867e+01 153 146 136
-4.430719e+00 6.775399e-01 1.032370e+01 126 128 124
6.858530e+00 6.216020e+00 -1.009744e+01 115 112 123
-1.416596e+00 -1.036380e-01 1.211773e+01 19 16 20
-1.595391e+00 -6.572765e-02 1.203734e+01 23 19 23
-2.172248e+00 -2.264530e-02 1.204374e+01 149 147 126
-1.668862e+00 -5.032950e-02 1.200272e+01 36 32 28
-1.040319e+00 -7.510599e-02 1.187062e+01 131 132 115
-2.105316e+00 5.530980e-02 1.177200e+01 50 44 45
-1.423227e+00 1.160259e-02 1.170993e+01 143 140 128
-1.620231e+00 1.127236e-01 1.140112e+01 155 154 148
-4.014934e+00 3.540265e-01 1.138032e+01 31 26 30
-4.065046e+00 3.564100e-01 1.137447e+01 64 66 43
-1.843586e-01 1.518371e-01 1.091430e+01 146 147 137
-4.219997e-01 1.543118e-01 1.090170e+01 161 159 160
-4.869871e-01 1.750079e-01 1.088136e+01 162 163 167
-9.449698e-01 2.762968e-01 1.062513e+01 165 164 168
-1.237278e+00 3.437171e-01 1.046804e+01 156 153 150
-1.237278e+00 3.437171e-01 1.046804e+01 156 153 150
-1.241019e+00 3.451089e-01 1.047775e+01 156 153 150
-1.421372e+00 3.939165e-01 1.050883e+01 163 161 165
-1.420536e+00 3.804589e-01 1.037008e+01 162 159 157
-1.090319e+00 3.975205e-01 1.026563e+01 63 73 103
-4.324464e+00 6.634029e-01 1.041115e+01 70 70 67
-9.492258e-01 9.466294e-01 8.316273e+00 178 182 190
-3.452035e+00 1.103275e+00 8.615698e+00 133 138 140
8.359187e+00 5.355222e+00 -8.201741e+00 115 118 132
8.235561e+00 5.578560e+00 -9.081571e+00 103 103 124
9.750524e+00 6.039364e+00 -8.629573e+00 208 216 235
3.406308e+00 1.253377e+01 -2.096155e+01 120 118 131
4.252831e+00 1.312795e+01 -2.221354e+01 171 177 199
9.114944e-01 1.143105e+01 -1.336671e+01 155 152 155
-2.475244e+00 -3.314547e-02 1.217257e+01 33 27 27
-2.526148e+00 -1.216730e-02 1.212344e+01 26 21 24
-1.807589e+00 -3.318012e-02 1.197493e+01 158 158 124
-1.810054e+00 -3.034461e-02 1.197710e+01 158 158 124
-2.291004e+00 2.246592e-02 1.194936e+01 145 144 119
-1.104694e+00 -4.679311e-02 1.185064e+01 31 24 39
-7.164938e-01 -8.819805e-02 1.178283e+01 35 24 25
-1.212502e+00 -2.650731e-02 1.182225e+01 27 19 33
-1.341585e+00 1.178167e-01 1.129601e+01 155 155 157
-1.507993e+00 1.616356e-01 1.117425e+01 148 150 143
-3.993134e+00 3.626573e-01 1.137107e+01 152 146 132
-4.012814e+00 3.633677e-01 1.131817e+01 35 29 37
-3.997604e+00 3.661530e-01 1.130706e+01 153 148 136
-4.059204e+00 4.000331e-01 1.127678e+01 149 147 124
-4.575657e+00 5.435332e-01 1.096165e+01 126 118 104
-2.837068e+00 4.798148e-01 1.083331e+01 19 19 17
-1.158225e+00 3.628449e-01 1.041131e+01 156 157 154
-1.292368e+00 3.962647e-01 1.035461e+01 157 158 162
-1.144548e+00 4.103954e-01 1.024825e+01 158 157 153
-4.292568e+00 7.779796e-01 9.946886e+00 123 124 129
-4.398690e+00 7.887658e-01 9.943103e+00 156 155 144
-2.678658e+00 1.046281e+00 1.107717e+01 97 83 55
-7.473543e-01 9.869812e-01 8.112341e+00 168 167 165
-7.473543e-01 9.869812e-01 8.112341e+00 168 167 165
-1.301493e-01 1.276853e+00 6.997316e+00 158 153 153
9.646158e+00 5.461496e+00 -8.717993e+00 130 133 139
9.912002e+00 6.401832e+00 -8.830778e+00 170 178 200
9.392672e-01 1.082770e+01 -2.349663e+01 21 34 39
3.579334e+00 1.163220e+01 -2.513292e+01 159 173 218
5.926211e+00 1.141496e+01 -2.121889e+01 86 83 85
-1.554239e-01 1.311210e+01 -2.420194e+01 16 34 33
-8.375254e+00 1.125741e+01 -1.729983e+01 20 38 34
-1.408998e+01 1.462893e+01 -2.578656e+01 252 252 249
-1.688619e+00 -9.745160e-02 1.212864e+01 34 29 27
-2.552722e+00 -5.559889e-03 1.210238e+01 127 132 86
-2.552722e+00 -5.559889e-03 1.210238e+01 127 132 86
-1.177210e+00 -3.261577e+00 5.080417e+00 46 36 41
-2.973250e+00 1.063531e-01 1.187212e+01 54 44 60
-5.655580e-01 5.567792e-03 1.146866e+01 43 34 53
-5.720428e-01 7.889432e-03 1.147765e+01 43 34 53
-4.071038e+00 3.657072e-01 1.131241e+01 59 53 42
-9.298537e-01 2.894879e-01 1.060202e+01 164 163 161
-4.428930e+00 5.446329e-01 1.080238e+01 59 52 68
-1.284603e+00 4.245387e-01 1.026887e+01 164 162 165
-4.748731e+00 7.076242e-01 1.047002e+01 124 124 111
-3.868333e+00 6.853864e-01 1.011445e+01 153 146 127
-4.024819e+00 7.237387e-01 1.004600e+01 154 150 138
-4.074951e+00 7.385024e-01 1.001152e+01 156 150 137
-4.315017e+00 7.733096e-01 1.001348e+01 158 154 143
-4.419939e+00 7.942256e-01 9.945858e+00 161 154 146
-4.432912e+00 8.406254e-01 9.906301e+00 159 156 146
-3.676392e+00 8.378513e-01 9.551950e+00 120 123 143
-4.119387e+00 8.885882e-01 9.553641e+00 167 164 155
-5.226281e+00 9.682437e-01 9.812995e+00 144 137 131
-3.709859e+00 1.073863e+00 8.773557e+00 180 179 182
-3.748665e+00 1.091066e+00 8.852615e+00 180 179 183
-5.705458e-01 1.021306e+00 7.985757e+00 90 110 115
-2.768483e+00 1.288351e+00 1.109811e+01 96 89 73
-6.306210e-01 1.037469e+00 7.951186e+00 162 165 161
-4.052258e+00 1.184185e+00 8.598321e+00 129 128 140
-8.558363e-01 1.061826e+00 7.871420e+00 171 167 165
6.394141e-01 1.284991e+00 6.727257e+00 77 78 66
-2.660369e+00 1.614423e+00 1.125206e+01 40 39 35
-2.817820e+00 1.845993e+00 1.121906e+01 60 54 45
2.010094e+00 1.069692e+01 -2.297050e+01 146 162 194
3.497088e+00 1.139115e+01 -2.499996e+01 92 107 123
-1.643535e+01 1.382869e+01 -3.006947e+01 161 169 170
-1.493495e+01 1.251815e+01 -2.280424e+01 149 157 157
-4.501577e+00 1.495399e+01 -2.800683e+01 136 120 128
8.368323e+00 8.757863e+00 -7.712430e+00 78 80 77
-1.740378e+00 -9.251491e-02 1.213342e+01 125 127 97
-1.740378e+00 -9.251491e-02 1.213342e+01 125 127 97
-1.326777e+00 -1.028453e-01 1.209355e+01 131 130 114
-1.679624e+00 -4.820322e-02 1.198836e+01 132 135 102
-1.679624e+00 -4.820322e-02 1.198836e+01 132 135 102
-1.177486e+00 -4.726457e-02 1.182563e+01 129 130 106
-8.448381e-01 -5.881195e-02 1.174313e+01 133 124 111
-8.100559e-01 -4.887621e-02 1.171236e+01 49 36 67
-1.306038e+00 -7.404969e-03 1.174935e+01 133 131 122
-1.746911e+00 7.311183e-02 1.159417e+01 34 33 43
-3.309986e-01 5.050035e-02 1.124784e+01 32 33 26
-3.981035e-01 6.722046e-02 1.121855e+01 57 57 65
-1.271938e+00 1.377230e-01 1.119928e+01 67 72 94
-1.508494e+00 1.567894e-01 1.119897e+01 54 58 84
-1.674876e-01 8.174743e-02 1.107667e+01 38 33 39
-4.049493e+00 3.875778e-01 1.128427e+01 74 74 48
-3.783401e-01 1.720376e-01 1.084555e+01 153 159 157
-4.614640e-01 1.866548e-01 1.082214e+01 85 89 113
-1.347698e+00 2.715922e-01 1.077072e+01 147 148 142
-7.455953e-01 2.556338e-01 1.066603e+01 90 97 124
-3.031674e-01 2.377235e-01 1.063115e+01 89 89 125
1.664507e-01 2.355700e-01 1.054831e+01 134 134 119
1.664507e-01 2.355700e-01 1.054831e+01 134 134 119
-9.857347e-01 2.976467e-01 1.058064e+01 75 79 109
1.715161e-01 2.338869e-01 1.048608e+01 136 132 121
-2.867794e+00 4.678119e-01 1.081826e+01 92 81 55
-1.413062e+00 4.014705e-01 1.036953e+01 162 160 171
-1.065067e+00 4.815144e-01 1.001450e+01 154 154 141
-4.030777e+00 6.852077e-01 1.016896e+01 103 101 105
-5.972319e-01 5.281984e-01 9.730916e+00 156 157 151
-4.250609e+00 7.321519e-01 1.011316e+01 152 148 134
-4.250609e+00 7.321519e-01 1.011316e+01 152 148 134
-3.925887e+00 8.616307e-01 9.590314e+00 170 169 167
-3.998911e+00 8.788857e-01 9.555562e+00 169 167 158
-4.209180e+00 9.311628e-01 9.436140e+00 168 168 160
-3.195285e-01 7.710117e-01 8.851747e+00 64 44 37
-4.223615e+00 9.848781e-01 9.313844e+00 175 171 169
-4.069231e+00 1.001239e+00 9.176859e+00 100 102 126
-3.400799e+00 1.001609e+00 8.866676e+00 176 177 177
-8.695098e-01 9.571262e-01 8.251992e+00 113 120 132
-4.051441e+00 1.145286e+00 8.729981e+00 123 121 135
-7.729427e-01 1.008801e+00 8.057717e+00 160 161 159
-7.773589e-01 1.028341e+00 8.013078e+00 115 119 118
-2.799818e+00 1.304327e+00 1.108513e+01 95 85 59
-8.101489e-01 1.066878e+00 7.914760e+00 162 167 167
-2.647926e+00 1.384508e+00 1.117163e+01 92 84 64
-2.839077e+00 1.543569e+00 1.112137e+01 95 83 59
-2.851047e+00 1.676284e+00 1.115619e+01 90 77 59
-2.684949e+00 1.815017e+00 1.129110e+01 49 46 35
-2.705179e+00 1.818551e+00 1.127806e+01 38 34 24
-8.685817e+00 1.171796e+01 -1.875880e+01 12 53 38
-1.064731e+00 -3.197108e+00 4.972370e+00 135 141 106
-3.063387e+00 1.136388e-01 1.187808e+01 72 64 62
-1.245293e+00 4.133577e-02 1.157205e+01 151 152 146
-1.235261e+00 4.503436e-02 1.155435e+01 84 83 96
-4.718757e-01 8.812688e-02 1.115713e+01 77 82 101
-1.687803e+00 1.877533e-01 1.113206e+01 146 147 139
-4.004441e+00 3.858676e-01 1.126807e+01 152 146 136
-2.795711e-01 1.479766e-01 1.089842e+01 153 152 144
-4.254787e+00 5.134574e-01 1.091656e+01 81 75 83
-1.087855e+00 3.198162e-01 1.053318e+01 83 87 123
-2.872000e+00 4.801092e-01 1.081567e+01 46 43 27
-4.772679e+00 5.919660e-01 1.087060e+01 152 153 117
-4.744793e+00 5.903219e-01 1.086670e+01 153 153 124
-2.786837e+00 5.454199e-01 1.088006e+01 53 53 43
-4.107894e+00 6.095017e-01 1.044916e+01 70 65 81
-4.232849e+00 6.256149e-01 1.041955e+01 137 137 117
-4.742055e+00 7.165374e-01 1.052127e+01 140 143 114
-4.443886e+00 8.497455e-01 9.790996e+00 162 156 153
-1.181490e+00 6.879401e-01 9.289351e+00 87 97 109
-2.918290e+00 1.000554e+00 1.092732e+01 94 87 62
-4.165611e+00 9.339548e-01 9.466108e+00 118 116 127
-4.002800e+00 9.318330e-01 9.380563e+00 174 173 175
-3.806221e+00 9.429574e-01 9.264922e+00 114 121 144
-4.025256e+00 9.913473e-01 9.188922e+00 105 110 126
-3.510564e+00 9.956571e-01 8.976150e+00 111 123 140
-3.515896e+00 1.039630e+00 8.805151e+00 108 116 128
-8.581752e-01 9.260738e-01 8.377568e+00 117 123 131
-9.333321e-01 9.387891e-01 8.388046e+00 114 126 140
-3.588038e+00 1.078888e+00 8.699828e+00 111 118 134
-2.686021e+00 1.239212e+00 1.111001e+01 39 36 22
-7.070540e-01 9.782659e-01 8.165754e+00 84 93 102
-3.392384e+00 1.095686e+00 8.569337e+00 107 110 121
-6.442552e-01 9.849480e-01 8.102165e+00 113 116 110
-6.748480e-01 1.032268e+00 8.001660e+00 94 111 126
-6.878620e-01 1.035600e+00 7.970835e+00 156 158 168
-7.797281e-01 1.037414e+00 7.954511e+00 121 128 121
-4.820526e+00 1.354626e+00 8.375165e+00 157 157 167
-2.719354e+00 1.462050e+00 1.117428e+01 42 36 36
-2.742317e+00 1.564795e+00 1.119053e+01 32 27 21
-2.844622e+00 1.589499e+00 1.113653e+01 33 31 28
-2.854065e+00 1.592648e+00 1.113117e+01 30 26 21
-2.759380e+00 1.697244e+00 1.116728e+01 90 78 60
-2.702897e+00 1.776541e+00 1.127066e+01 19 18 15
-2.702897e+00 1.776541e+00 1.127066e+01 19 18 15
-2.626825e+00 1.800747e+00 1.132019e+01 47 47 37
-2.640504e+00 1.883403e+00 1.133458e+01 105 100 92
-2.631915e+00 1.887214e+00 1.134056e+01 13 14 9
-2.654986e+00 1.890888e+00 1.131385e+01 97 90 75
-2.794880e+00 2.011235e+00 1.127551e+01 89 85 73
-1.440215e+00 1.089178e+01 -2.370017e+01 87 102 127
-1.163122e+00 -3.203192e+00 4.903952e+00 77 74 69
-2.106437e+00 2.367556e-02 1.189743e+01 158 152 140
-2.077444e+00 2.296421e-02 1.189208e+01 117 108 104
-8.650733e-01 -5.097139e-02 1.173177e+01 133 129 128
-2.814139e+00 1.134589e-01 1.178477e+01 151 145 133
-1.556217e+00 4.566203e-02 1.163600e+01 132 135 107
-1.550008e+00 1.114979e-01 1.140623e+01 83 83 105
-1.945537e+00 1.910781e-01 1.122083e+01 158 156 158
-4.031872e+00 3.574000e-01 1.139121e+01 92 92 63
-4.031872e+00 3.574000e-01 1.139121e+01 92 92 63
-2.581594e-01 -1.544685e+00 5.600681e+00 148 146 149
-1.323703e+00 2.593732e-01 1.079859e+01 144 144 133
-4.684799e+00 5.468862e-01 1.088044e+01 124 117 97
-2.875046e+00 4.930613e-01 1.081862e+01 85 75 57
-2.914442e+00 4.914373e-01 1.079267e+01 57 49 36
-2.909586e+00 5.009910e-01 1.079656e+01 91 81 68
2.243312e-01 3.352045e-01 1.021439e+01 120 124 134
-4.086229e+00 5.979274e-01 1.053753e+01 80 79 80
-2.948756e+00 6.309586e-01 1.079323e+01 55 57 45
-4.319660e+00 6.705846e-01 1.041202e+01 83 78 84
-4.443471e+00 6.860370e-01 1.033091e+01 129 132 112
-4.625382e+00 7.316841e-01 1.023234e+01 79 78 75
-4.637358e+00 7.470229e-01 1.031381e+01 72 67 70
-4.595595e+00 7.489912e-01 1.027767e+01 92 85 92
-4.166001e+00 7.310944e-01 1.017425e+01 149 148 137
-3.783822e+00 7.014570e-01 1.003883e+01 90 87 93
-3.799345e+00 7.226817e-01 1.000173e+01 97 100 106
-4.468952e+00 8.390760e-01 9.910050e+00 152 149 147
-4.450599e+00 8.614330e-01 9.851584e+00 97 97 97
-1.287255e+00 6.929956e-01 9.308828e+00 104 115 117
-3.803297e+00 8.643947e-01 9.502045e+00 99 104 115
-3.478676e+00 8.606155e-01 9.360475e+00 105 108 122
-4.038267e+00 9.198890e-01 9.398705e+00 96 97 106
-3.699088e+00 9.056326e-01 9.323347e+00 107 116 126
-3.697609e+00 9.075557e-01 9.336459e+00 107 116 126
-4.022987e+00 9.393962e-01 9.372479e+00 170 171 172
-3.877529e+00 9.537799e-01 9.261640e+00 112 117 134
-4.383564e+00 1.016353e+00 9.247210e+00 126 124 131
-4.374058e+00 1.019778e+00 9.290772e+00 126 124 131
-1.473258e+00 8.914267e-01 8.692166e+00 159 179 212
-3.366951e+00 9.804485e-01 8.908573e+00 126 128 134
-3.364524e+00 9.859656e-01 8.966728e+00 126 128 134
-3.513096e+00 1.006858e+00 8.926762e+00 173 184 196
-3.636248e+00 1.037128e+00 8.898304e+00 109 124 138
-3.181461e+00 1.046054e+00 8.692872e+00 104 108 109
-3.182294e+00 1.042962e+00 8.650590e+00 104 108 109
-7.278724e-01 9.720903e-01 8.177356e+00 151 152 153
-3.444052e+00 1.107804e+00 8.656746e+00 104 109 112
-7.730482e-01 9.987481e-01 8.115982e+00 126 127 127
-4.154918e+00 1.169722e+00 8.705137e+00 121 120 123
-3.062128e+00 1.125304e+00 8.340873e+00 110 117 125
-3.133628e+00 1.146080e+00 8.390266e+00 121 125 126
-3.728165e+00 1.170693e+00 8.499858e+00 116 119 129
-7.406025e-01 1.095789e+00 7.813228e+00 154 158 165
-2.752146e+00 1.500050e+00 1.116919e+01 88 81 62
-2.807131e+00 1.514127e+00 1.113875e+01 93 84 67
-2.812871e+00 1.583173e+00 1.120217e+01 35 28 16
-2.834611e+00 1.586938e+00 1.114091e+01 33 31 27
-2.654562e+00 1.636607e+00 1.125800e+01 25 22 15
-2.789590e+00 1.648278e+00 1.118381e+01 64 57 46
-2.714673e+00 1.650857e+00 1.122906e+01 29 19 12
-2.773097e+00 1.657875e+00 1.119697e+01 79 68 57
-2.855057e+00 1.706679e+00 1.116027e+01 30 25 10
-2.855253e+00 1.706339e+00 1.116041e+01 30 25 10
-5.360890e+00 2.042238e+00 6.141577e+00 79 72 54
-2.769214e+00 1.783726e+00 1.123127e+01 20 18 12
-2.626283e+00 1.894987e+00 1.134558e+01 95 93 80
-2.618665e+00 1.906554e+00 1.135291e+01 71 70 60
-2.618322e+00 1.906507e+00 1.135218e+01 71 70 60
-2.834040e+00 1.992607e+00 1.124755e+01 80 76 65
-2.730561e+00 1.997219e+00 1.126454e+01 21 19 10
-1.981117e+01 1.254682e+01 -1.981002e+01 255 255 255
-3.581556e-01 5.743137e-01 9.384536e+00 114 126 142
-1.271736e+01 6.407487e+00 -5.372893e+00 6 6 6
-8.058686e+00 1.373289e+01 -2.175642e+01 21 22 29
-2.638493e+00 1.055203e+01 -2.101057e+01 70 69 83
-8.084913e+00 1.201242e+01 -1.869918e+01 255 255 255
-3.412743e-01 5.463840e-01 9.464788e+00 80 90 119
-9.263419e+00 1.039118e+01 -1.956923e+01 158 161 170
-1.890900e+01 9.225421e+00 -1.357553e+01 9 9 9
-1.392892e+01 6.562769e+00 -7.592871e+00 92 85 75
5.148068e+00 1.089947e+01 -1.424109e+01 255 254 255
-1.719619e+01 6.412167e+00 -5.840236e+00 89 79 70
-8.025974e+00 1.093306e+01 -1.636402e+01 23 27 28
-1.494614e+01 1.611554e+01 -2.998226e+01 19 20 24
-7.669643e-01 7.640235e-01 8.819764e+00 137 156 190
-1.628268e+00 8.058622e-01 8.704526e+00 110 126 152
1.619131e+00 1.003768e+01 -2.046224e+01 19 25 33
-2.545355e+00 1.238786e+01 -2.205577e+01 18 19 23
-8.093896e+00 1.275517e+01 -2.246640e+01 255 255 255
-1.558638e+01 1.317570e+01 -2.512070e+01 27 31 36
-2.021516e+01 9.629594e+00 -1.430113e+01 8 6 7
-2.126215e+01 9.393674e+00 -1.314199e+01 135 132 131
-2.586713e+01 1.231501e+01 -2.051250e+01 143 139 136
-9.836070e+00 1.307700e+01 -1.457525e+01 55 51 49
2.448952e-01 6.210574e-01 9.266512e+00 66 73 76
7.695270e-02 6.280540e-01 9.270676e+00 159 158 154
2.266067e-01 6.499810e-01 9.146154e+00 60 68 71
1.100366e-01 6.601068e-01 9.145650e+00 59 63 69
-9.045844e+00 1.140226e+01 -2.381159e+01 13 15 14
-9.212893e+00 1.319644e+01 -2.939422e+01 22 26 28
-1.059197e+01 1.019173e+01 -1.855974e+01 151 153 167
-1.658193e+01 1.187718e+01 -2.508260e+01 142 139 150
-1.314896e+00 1.327507e+01 -2.317951e+01 12 13 18
-1.649189e+01 1.215855e+01 -2.378784e+01 178 187 204
-1.649189e+01 1.215855e+01 -2.378784e+01 178 187 204
-1.869754e+01 8.772416e+00 -1.322882e+01 115 110 114
-1.877568e+01 9.504247e+00 -1.346126e+01 7 9 8
-1.979165e+01 9.736419e+00 -1.397852e+01 130 122 116
-2.028261e+01 9.973088e+00 -1.475687e+01 130 122 116
-2.595894e+01 1.213483e+01 -2.004989e+01 13 14 17
-1.944653e+01 1.121287e+01 -1.437196e+01 81 78 64
-1.944653e+01 1.121287e+01 -1.437196e+01 81 78 64
-1.910677e+01 1.130582e+01 -1.391052e+01 6 5 7
1.398147e-01 6.866335e-01 9.026050e+00 158 156 155
-4.700986e-01 7.053497e-01 8.985941e+00 155 187 233
-4.700986e-01 7.053497e-01 8.985941e+00 155 187 233
-5.026357e+00 1.329697e+00 8.162062e+00 151 136 102
-2.545881e+00 1.737883e+00 1.125300e+01 16 18 20
3.818501e-01 7.655809e+00 -1.323890e+01 18 22 26
3.818501e-01 7.655809e+00 -1.323890e+01 18 22 26
-2.707172e+00 1.097854e+01 -2.134270e+01 34 32 33
-1.641833e+01 1.403111e+01 -3.058840e+01 23 25 29
4.928810e+00 1.450629e+01 -2.424425e+01 136 140 149
-1.925666e+01 1.053321e+01 -1.538532e+01 93 85 80
4.566508e-01 1.169688e+01 -1.341732e+01 14 12 13
-1.951088e+01 1.196671e+01 -1.523234e+01 10 15 16
-1.570518e-01 5.222204e-01 9.602396e+00 90 99 107
-4.678250e+00 1.285577e+00 8.103725e+00 111 98 67
7.406064e+00 8.715146e+00 -1.698848e+01 16 14 16
3.516455e+00 1.033796e+01 -2.273727e+01 162 173 214
-3.339059e+00 8.687804e+00 -1.668410e+01 13 19 19
4.196110e+00 1.261361e+01 -2.880893e+01 159 180 222
-1.329274e+01 8.830915e+00 -1.430300e+01 118 111 107
-1.746470e+00 1.359274e+01 -2.481197e+01 69 86 123
-7.753534e+00 1.098519e+01 -1.567283e+01 253 253 255
-1.008680e+01 7.210605e+00 -4.376643e+00 90 89 97
-7.532001e+00 1.141612e+01 -1.527540e+01 37 38 47
-1.983719e+01 9.887640e+00 -1.394203e+01 6 7 8
-1.505739e+01 1.569552e+01 -2.894880e+01 254 253 250
-1.405244e+01 1.423961e+01 -2.260438e+01 255 253 255
-1.936380e+01 1.125510e+01 -1.385493e+01 87 79 72
-1.936380e+01 1.125510e+01 -1.385493e+01 87 79 72
2.744207e-01 6.010329e-01 9.252153e+00 148 154 135
3.316774e-01 6.567942e-01 9.101215e+00 45 60 69
-1.465127e+00 8.637721e-01 8.395616e+00 130 144 169
-1.465127e+00 8.637721e-01 8.395616e+00 130 144 169
-4.737754e+00 1.304541e+00 8.085763e+00 109 93 70
-4.814346e+00 1.302018e+00 8.181224e+00 162 157 144
6.554362e+00 7.620686e+00 -8.940752e+00 4 10 8
1.878702e-01 1.287374e+01 -2.335999e+01 29 58 65
-1.451898e+01 1.313167e+01 -2.665424e+01 137 135 160
-2.346480e+00 1.341161e+01 -2.365345e+01 85 89 103
-2.346480e+00 1.341161e+01 -2.365345e+01 85 89 103
-1.902080e+01 1.030192e+01 -1.462198e+01 19 14 21
-1.992010e+01 1.135046e+01 -1.470829e+01 19 12 26
-1.891088e+01 1.153108e+01 -1.390672e+01 79 76 87
1.086636e-01 6.550336e-01 9.030425e+00 159 157 159
-2.618061e+00 8.432685e-01 1.096283e+01 64 50 38
-4.433321e+00 1.206431e+00 8.248922e+00 172 167 164
-4.433321e+00 1.206431e+00 8.248922e+00 172 167 164
-4.765265e+00 1.278430e+00 8.238450e+00 122 108 84
-5.737433e+00 1.436656e+00 7.850909e+00 106 95 74
5.713895e+00 1.053938e+01 -2.245560e+01 79 71 81
1.601725e+00 9.866070e+00 -2.057376e+01 241 224 253
1.666648e+00 1.040481e+01 -2.038273e+01 178 184 239
-2.626119e+00 1.113228e+01 -2.266782e+01 68 69 83
-1.956037e+01 1.100892e+01 -1.419554e+01 75 87 111
-1.943930e+01 1.093823e+01 -1.401857e+01 75 87 111
-1.470265e+01 1.554860e+01 -2.057018e+01 107 94 109
-1.443499e+01 1.545006e+01 -2.026156e+01 101 93 100
1.147361e+01 -6.867049e+00 -1.664682e+01 157 163 164
-2.367965e+00 1.533075e+00 6.662307e+00 148 155 174
-4.635638e+00 1.284084e+00 8.101506e+00 111 96 83
-2.720863e+00 1.474675e+00 1.117674e+01 101 88 70
-5.098013e+00 1.460240e+00 7.701860e+00 128 120 98
-7.136354e+00 1.530574e+00 8.090055e+00 61 52 36
-2.245551e+00 1.048968e+01 -2.155798e+01 57 106 115
-6.473273e+00 9.753115e+00 -1.614947e+01 112 97 119
-1.377001e+01 9.454615e+00 -1.419650e+01 46 53 61
-1.886639e+01 9.838729e+00 -1.367784e+01 74 79 81
-1.857064e+01 9.628034e+00 -1.288887e+01 108 126 138
-1.066736e+01 1.407383e+01 -2.337251e+01 72 69 96
2.524922e-01 6.018279e-01 9.259904e+00 67 76 66
1.870942e-01 6.515253e-01 9.134645e+00 67 72 76
-7.423956e-03 7.433251e-01 8.890989e+00 95 105 106
-1.385884e+00 8.450332e-01 8.460877e+00 129 141 163
-1.432731e+00 8.578888e-01 8.465016e+00 127 144 169
-4.577745e+00 1.258815e+00 8.195142e+00 106 98 76
-4.577745e+00 1.258815e+00 8.195142e+00 106 98 76
-4.671972e+00 1.279044e+00 8.157943e+00 99 90 60
-5.049801e+00 1.329928e+00 8.196435e+00 119 114 78
-5.015870e+00 1.374644e+00 7.917031e+00 137 130 111
-5.015870e+00 1.374644e+00 7.917031e+00 137 130 111
-5.079020e+00 1.386861e+00 7.962071e+00 126 115 95
-2.520828e+00 1.701031e+00 1.116617e+01 26 22 13
-2.421055e+00 1.740422e+00 1.099629e+01 58 59 51
-2.421055e+00 1.740422e+00 1.099629e+01 58 59 51
5.913762e+00 7.094303e+00 -8.363954e+00 17 17 19
-2.956114e+00 4.530119e-01 1.076345e+01 28 27 23
6.360655e+00 8.516906e+00 -6.968318e+00 44 51 62
-7.536540e-01 3.341179e-01 1.039819e+01 53 64 86
-7.536540e-01 3.341179e-01 1.039819e+01 53 64 86
9.869266e+00 5.616960e+00 -9.390840e+00 13 14 18
9.869266e+00 5.616960e+00 -9.390840e+00 13 14 18
-2.765993e+00 9.437192e-01 1.100081e+01 23 23 21
-4.430715e+00 8.099164e-01 9.883305e+00 119 118 123
6.825440e-01 1.098299e+00 7.575570e+00 81 65 45
-4.107233e+00 1.175443e+00 8.656908e+00 192 191 195
-1.126314e+01 1.123176e+01 -2.080360e+01 154 149 168
-5.907881e-01 1.192838e+01 -2.272783e+01 252 253 255
4.171567e+00 -3.713497e+00 2.534682e+00 52 44 58
4.171567e+00 -3.713497e+00 2.534682e+00 52 44 58
-1.787900e+00 2.603829e-01 1.091809e+01 89 88 100
-2.931429e+00 5.192013e-01 1.079280e+01 102 91 64
-4.004358e+00 7.220047e-01 1.004658e+01 164 157 150
-1.816188e+00 5.617916e+00 -6.922680e+00 75 76 81
-9.971877e-01 6.735744e+00 -1.116003e+01 73 77 78
-8.766819e+00 1.468491e+01 -2.665710e+01 251 246 252
-3.545349e-01 -3.685027e+00 1.502791e-01 150 150 141
3.442946e-01 1.903744e-01 1.049618e+01 153 152 149
-2.853526e+00 6.528421e-01 1.087718e+01 73 64 55
-2.853526e+00 6.528421e-01 1.087718e+01 73 64 55
-4.104974e+00 7.009721e-01 1.012284e+01 98 97 103
-3.989473e+00 9.288155e-01 9.404136e+00 183 184 191
-2.600639e+00 1.873914e+00 1.135480e+01 51 51 38
2.262204e+00 -3.912912e+00 3.183127e+00 139 136 130
-9.113505e-01 2.397094e-01 1.071464e+01 153 153 149
-8.247351e-01 4.968642e-01 9.906497e+00 72 86 105
-2.894351e+00 1.056823e+00 1.095670e+01 57 50 40
-3.907972e+00 8.922031e-01 9.462824e+00 105 115 128
-4.168621e+00 9.075673e-01 9.511224e+00 135 139 151
5.922416e-01 9.877422e-01 7.989682e+00 118 115 104
-2.789772e+00 1.296921e+00 1.108957e+01 60 52 35
-2.769769e+00 1.570995e+00 1.117796e+01 38 32 29
-2.713487e+00 1.658365e+00 1.123448e+01 28 21 13
-2.713007e+00 1.658159e+00 1.123135e+01 28 21 13
-2.696824e+00 1.898074e+00 1.130718e+01 100 96 82
-2.779612e+00 1.931874e+00 1.126787e+01 94 92 77
-2.800599e+00 1.939521e+00 1.125431e+01 90 87 74
-2.658232e+00 1.963297e+00 1.134811e+01 20 16 12
-1.376968e+00 1.367986e+01 -2.564109e+01 117 169 197
-1.551435e+00 3.160114e-01 1.068150e+01 151 150 153
-4.711222e+00 5.458316e-01 1.083532e+01 55 52 40
-4.723082e+00 7.111748e-01 1.028226e+01 91 83 82
-4.515851e+00 8.465529e-01 9.783086e+00 157 152 131
-2.896202e+00 1.202281e+00 1.100385e+01 93 87 55
-3.724955e+00 1.094982e+00 8.778149e+00 116 126 136
-2.658935e+00 1.373599e+00 1.119016e+01 71 58 41
-4.474089e+00 1.269770e+00 8.475502e+00 177 189 205
-2.636060e+00 1.938149e+00 1.135440e+01 22 18 14
-2.646927e+00 1.948437e+00 1.134964e+01 20 15 11
-2.786544e+00 2.005937e+00 1.128010e+01 17 15 7
-2.757700e+00 1.995082e+00 1.134587e+01 72 73 63
-1.775143e+01 1.078711e+01 -1.272546e+01 92 89 82
-1.842536e+00 1.864086e-01 1.121412e+01 159 156 151
-1.675112e+01 6.663074e+00 -5.210641e+00 9 9 9
4.989744e+00 1.090118e+01 -2.094534e+01 95 96 80
-2.065538e+00 1.126588e+01 -2.160352e+01 174 205 254
-1.598655e+00 1.813586e-01 1.110370e+01 158 155 150
-2.494090e+00 5.288653e-01 1.059190e+01 27 28 22
-2.494090e+00 5.288653e-01 1.059190e+01 27 28 22
-2.125526e+01 8.870422e+00 -1.260304e+01 116 115 121
-1.699796e+01 7.055507e+00 -5.823619e+00 118 116 119
-2.435902e+00 1.108602e+00 1.366472e+01 85 83 64
-5.874211e-01 5.593266e-01 9.670741e+00 83 100 127
-1.937105e+01 1.115329e+01 -1.349950e+01 5 5 5
-4.231750e+00 7.171975e-01 1.003759e+01 119 117 116
-2.369090e+00 1.123095e+01 -2.143882e+01 27 46 63
-1.853385e+01 1.079785e+01 -1.121426e+01 46 45 49
-2.742479e+00 6.253798e-01 1.091936e+01 60 57 43
-2.417955e+00 1.632876e+00 1.094417e+01 64 61 48
-4.446321e+00 8.433264e-01 9.694045e+00 166 160 158
-1.675599e+01 6.503374e+00 -5.301029e+00 43 39 38
-1.189881e+01 6.646627e+00 -6.215023e+00 65 59 52
-1.152455e+00 3.192927e-01 1.057368e+01 51 51 78
-2.406268e+00 5.592462e-01 1.042790e+01 31 30 25
-4.441919e+00 5.479200e-01 1.076202e+01 162 159 152
-9.502185e-01 5.862557e-01 9.690469e+00 91 98 113
-2.422075e+00 9.308784e-01 1.066200e+01 60 52 38
-5.853341e+00 8.554429e-01 1.008535e+01 147 140 124
-2.758448e+00 1.989547e+00 1.129285e+01 104 98 87
-1.329146e+01 9.184092e+00 -1.317934e+01 44 50 55
-1.924509e+01 1.102712e+01 -1.352888e+01 64 70 68
-1.520418e+00 1.999662e-01 1.105302e+01 129 136 92
-1.490704e+00 -9.768528e-01 6.892157e+00 141 146 120
-5.976464e-01 4.883456e-01 9.893605e+00 105 118 136
-9.779127e-01 5.397132e-01 9.835375e+00 154 146 150
-2.543271e+00 8.358497e-01 1.084212e+01 45 40 32
-4.748901e+00 7.466373e-01 1.011468e+01 103 94 84
-2.396969e+00 9.788535e-01 1.061994e+01 67 56 39
-4.291506e+00 9.726141e-01 9.208159e+00 105 104 95
-1.654459e+00 1.197598e+00 7.863085e+00 184 183 194
-5.070239e+00 9.646545e-01 9.610831e+00 170 168 158
-4.496118e+00 2.406514e-01 1.153711e+01 27 27 27
-3.994997e+00 3.044674e-01 1.125503e+01 172 169 162
-2.239678e+00 5.933424e-01 1.006675e+01 100 81 68
-2.143230e+00 6.483033e-01 1.004620e+01 184 182 185
-2.883603e+00 4.267429e-03 1.198492e+01 159 154 143
-6.669640e-01 2.034349e-01 1.078019e+01 160 156 153
-7.260384e-01 2.601122e-01 1.050502e+01 161 157 154
-4.941040e-01 6.188759e-01 9.218822e+00 74 87 103
-1.179626e+00 6.631599e-01 9.463183e+00 95 112 134
-6.637485e-01 7.375024e-01 9.018209e+00 84 110 145
-8.391255e+00 2.001416e+00 6.915328e+00 30 30 28
-8.791766e+00 2.012093e+00 6.956851e+00 94 86 72
-8.791766e+00 2.012093e+00 6.956851e+00 94 86 72
-2.130262e+00 1.956919e-02 1.185190e+01 160 158 145
-3.909299e+00 3.196113e-01 1.123775e+01 104 98 82
-2.783326e-01 6.039236e-01 9.457228e+00 169 172 179
-6.309113e-01 7.841178e-01 8.864205e+00 180 183 190
-4.623174e+00 5.283448e-01 1.087501e+01 93 86 81
-5.494217e-01 8.186581e-01 8.762656e+00 140 139 144
-1.677008e+00 7.918444e-01 9.088159e+00 125 130 142
-5.285194e-01 1.842177e-01 1.085707e+01 155 154 149
-3.100503e+00 5.475389e-02 1.203017e+01 161 154 137
-6.192173e-01 2.108359e-01 1.067912e+01 160 156 153
-7.482606e-01 2.216210e-01 1.072704e+01 163 160 158
-7.833034e-01 2.213831e-01 1.067047e+01 162 158 155
-5.889927e-01 2.829749e-01 1.042998e+01 23 25 25
-1.187555e+00 3.554852e-01 1.045551e+01 56 55 70
-3.653843e+00 2.771595e-01 1.148688e+01 82 43 29
-1.046821e+00 5.788598e-01 9.690644e+00 53 73 108
-2.392960e+00 5.787626e-01 1.041730e+01 74 72 64
-2.392960e+00 5.787626e-01 1.041730e+01 74 72 64
-5.376013e-01 6.917191e-01 9.247249e+00 183 185 189
-2.600306e+00 7.453633e-01 1.094813e+01 91 82 70
-5.178024e-01 7.697830e-01 9.040133e+00 184 187 196
-4.214121e+00 6.087361e-01 1.038288e+01 123 121 112
-3.914098e+00 6.654082e-01 1.019697e+01 169 161 150
-2.585699e+00 9.988752e-01 1.102215e+01 90 83 75
-2.585699e+00 9.988752e-01 1.102215e+01 90 83 75
-4.505091e+00 7.005984e-01 1.019436e+01 168 160 149
-5.712151e+00 8.235122e-01 1.010199e+01 161 159 149
-2.555975e+00 1.473528e+00 1.117631e+01 22 22 20
-2.126494e+00 4.908199e-02 1.182904e+01 18 15 15
-3.048067e+00 4.634282e-02 1.204246e+01 30 23 30
-6.838122e-01 2.991046e-01 1.052498e+01 26 25 35
-7.366436e-01 3.119806e-01 1.049376e+01 29 28 34
-6.837228e-01 3.399972e-01 1.039439e+01 21 25 26
-8.173176e-01 3.705066e-01 1.032342e+01 29 29 33
-1.344274e+00 4.434892e-01 1.021545e+01 172 168 164
-8.400785e-01 4.870744e-01 9.949835e+00 32 45 61
-6.730100e-01 5.587415e-01 9.696815e+00 38 47 60
-8.725488e-01 5.722650e-01 9.662687e+00 59 71 95
-9.837383e-01 5.867912e-01 9.698557e+00 178 177 181
-4.529570e-01 6.640744e-01 9.324085e+00 177 176 181
-5.625178e+00 5.142597e-01 1.088561e+01 88 86 28
-2.684763e+00 9.674192e-01 1.106700e+01 120 108 88
-5.583011e+00 5.479365e-01 1.097176e+01 147 147 86
-4.462332e+00 6.544781e-01 1.025320e+01 78 78 66
-4.507474e+00 7.971734e-01 9.875220e+00 168 162 146
-9.214531e-01 1.106253e+00 7.995940e+00 115 159 187
-2.603394e+00 1.898191e+00 1.133866e+01 19 24 17
-2.147056e+00 2.118824e+00 1.056241e+01 20 22 19
-3.161229e+00 -1.642630e-02 1.224331e+01 38 29 31
-5.016786e-01 1.517925e-01 1.077820e+01 152 151 149
-5.341379e-01 1.897135e-01 1.073276e+01 155 155 147
-5.341379e-01 1.897135e-01 1.073276e+01 155 155 147
-1.058273e+00 3.831611e-01 1.033521e+01 25 20 26
-4.405194e+00 2.285706e-01 1.167178e+01 40 42 31
-1.205963e+00 4.477213e-01 1.017305e+01 26 26 24
-5.002189e-01 5.070166e-01 9.728848e+00 147 148 153
-4.720348e-01 5.261468e-01 9.737718e+00 99 102 112
-9.842670e-01 5.205325e-01 9.884946e+00 137 66 65
-5.308102e-01 5.738482e-01 9.561163e+00 50 65 88
-2.529026e+00 5.101617e-01 1.069465e+01 21 23 22
-4.126123e+00 3.670531e-01 1.115588e+01 173 170 161
-4.897733e-01 6.672214e-01 9.278982e+00 84 102 120
-5.037492e+00 3.385678e-01 1.145173e+01 46 48 35
-5.115224e+00 3.996106e-01 1.114126e+01 68 54 44
-5.115224e+00 3.996106e-01 1.114126e+01 68 54 44
-8.199822e-01 7.867455e-01 8.869911e+00 90 104 131
-4.481051e-01 8.618038e-01 8.500165e+00 100 116 134
-3.884634e+00 6.480989e-01 1.015300e+01 169 161 150
-1.876980e+00 8.373577e-01 9.143870e+00 103 121 133
-5.629822e+00 5.506946e-01 1.098352e+01 75 74 28
-5.629822e+00 5.506946e-01 1.098352e+01 75 74 28
-4.385610e+00 7.685395e-01 9.927868e+00 168 160 148
-4.385610e+00 7.685395e-01 9.927868e+00 168 160 148
-4.363335e+00 7.672346e-01 9.876969e+00 94 89 84
-6.144426e-01 1.142622e+00 7.808655e+00 124 132 125
-6.144426e-01 1.142622e+00 7.808655e+00 124 132 125
-1.531183e+00 1.167828e+00 7.963923e+00 134 140 154
-1.528092e+00 1.170247e+00 7.995333e+00 134 140 154
-4.965182e+00 1.331672e+00 8.266390e+00 154 140 114
-8.500274e+00 1.980383e+00 7.009336e+00 108 92 76
-8.114576e+00 2.191722e+00 6.011685e+00 36 37 33
-8.074163e+00 2.188501e+00 6.060502e+00 36 37 33
-8.297179e+00 2.204521e+00 6.091325e+00 109 97 83
-8.852759e+00 2.137239e+00 6.635556e+00 92 83 73
-8.883599e+00 2.138361e+00 6.604169e+00 92 83 73
-3.289342e+00 -8.639286e-02 1.229143e+01 147 149 128
-3.364407e+00 -8.568739e-02 1.229980e+01 48 39 41
-3.300992e+00 -7.747409e-02 1.227900e+01 63 50 68
-2.146435e+00 4.416664e-02 1.185385e+01 26 20 28
-2.146435e+00 4.416664e-02 1.185385e+01 26 20 28
-3.381725e+00 -7.966173e-02 1.227768e+01 142 149 119
-3.358912e+00 -6.908566e-02 1.225674e+01 146 148 125
-1.722243e+00 7.499003e-02 1.159797e+01 186 187 173
-3.212708e+00 -4.623027e-02 1.216713e+01 143 148 117
-3.750471e-01 1.583390e-01 1.079320e+01 47 37 43
-5.255710e-01 1.886378e-01 1.073016e+01 154 153 143
-2.002554e+00 1.352608e-01 1.148462e+01 169 166 150
-9.606272e-01 1.725206e-01 1.091399e+01 39 36 61
-2.068131e+00 1.428922e-01 1.148321e+01 34 27 35
-1.556533e+00 1.954823e-01 1.104190e+01 186 187 172
-1.518882e+00 2.098939e-01 1.104910e+01 125 118 111
-7.500380e-01 4.637066e-01 1.001036e+01 39 40 48
-6.191356e-01 4.830181e-01 9.907336e+00 47 62 74
-9.699298e-01 4.995811e-01 9.938210e+00 164 159 156
-1.154062e+00 5.051240e-01 9.988041e+00 69 73 79
-1.007409e+00 5.743493e-01 9.735082e+00 43 68 101
-1.170953e+00 6.036325e-01 9.669865e+00 183 183 186
-7.357323e-01 6.901655e-01 9.269967e+00 89 109 141
-5.533252e+00 4.176572e-01 1.110401e+01 49 44 28
-2.601476e+00 8.297838e-01 1.094980e+01 109 83 60
-2.587232e+00 9.321284e-01 1.097651e+01 44 35 26
-5.585500e+00 5.305231e-01 1.101387e+01 147 148 129
-3.883484e+00 6.776537e-01 1.007340e+01 166 163 147
-5.564549e+00 5.628662e-01 1.094449e+01 105 98 65
-1.471861e+00 9.091818e-01 8.770466e+00 142 158 182
-4.291519e+00 7.249230e-01 1.000029e+01 109 109 109
-6.665821e-01 1.058254e+00 8.066905e+00 187 196 208
-4.461693e+00 7.680099e-01 9.923599e+00 128 124 122
-6.068442e-01 1.084393e+00 7.923528e+00 110 137 155
-2.477898e+00 1.262001e+00 1.094958e+01 100 89 76
-2.385563e+00 1.187891e+00 8.174688e+00 174 184 193
-5.310228e+00 9.635309e-01 9.630012e+00 88 76 42
-6.999421e+00 9.392211e-01 9.699501e+00 65 56 46
-2.513723e+00 1.623795e+00 1.116842e+01 47 43 34
-2.513723e+00 1.623795e+00 1.116842e+01 47 43 34
-2.459277e+00 1.683792e+00 1.109721e+01 68 65 57
-2.323711e+00 1.722953e+00 1.078715e+01 56 53 38
-2.323303e+00 1.723190e+00 1.078756e+01 56 53 38
-2.525045e+00 1.693208e+00 1.120423e+01 72 64 53
-2.521349e+00 1.693792e+00 1.121222e+01 72 64 53
-2.462343e+00 1.830644e+00 1.111611e+01 49 46 35
-2.823712e+00 1.842575e+00 1.119133e+01 67 57 45
-2.408980e+00 1.889884e+00 1.106741e+01 59 59 43
-2.408980e+00 1.889884e+00 1.106741e+01 59 59 43
-2.416390e+00 1.954955e+00 1.110442e+01 52 48 37
-2.382376e+00 1.977564e+00 1.103446e+01 64 62 53
-2.224162e+00 2.097368e+00 1.071601e+01 61 58 46
-1.391179e+00 4.861069e-02 1.155832e+01 164 160 148
-2.034973e+00 3.553021e-02 1.186451e+01 147 151 129
-2.280640e+00 1.803930e-02 1.195133e+01 58 47 74
-2.280640e+00 1.803930e-02 1.195133e+01 58 47 74
-3.341115e+00 -8.469428e-02 1.230553e+01 142 143 128
-2.632432e+00 6.571088e-02 1.187265e+01 68 56 80
-4.399654e-01 1.747912e-01 1.075938e+01 38 37 37
-5.834858e-01 1.636475e-01 1.082526e+01 46 40 70
-3.175907e+00 2.157930e-02 1.199486e+01 56 46 58
-6.130396e-01 1.703423e-01 1.081553e+01 42 35 48
-1.800783e+00 1.578129e-01 1.131916e+01 191 190 176
-5.833433e-01 2.076465e-01 1.068352e+01 39 33 54
-5.833433e-01 2.076465e-01 1.068352e+01 39 33 54
-2.049703e+00 1.522312e-01 1.143161e+01 52 43 83
-1.731469e+00 1.916771e-01 1.115860e+01 127 117 108
-1.191468e+00 2.259997e-01 1.086872e+01 48 39 63
-6.606931e-01 2.981024e-01 1.052541e+01 154 157 133
-9.324640e-01 2.940963e-01 1.053975e+01 36 29 50
-1.048709e+00 3.088242e-01 1.055942e+01 34 28 34
-1.161644e+00 3.080998e-01 1.058866e+01 36 32 56
-1.454697e+00 3.702242e-01 1.047232e+01 170 164 151
-3.622041e+00 2.710492e-01 1.137502e+01 113 103 112
-4.626727e-01 4.905071e-01 9.850620e+00 106 108 111
-6.560740e-01 4.667657e-01 9.855519e+00 63 71 74
-7.181597e-01 4.810625e-01 9.943283e+00 96 101 95
-7.451674e-01 4.868093e-01 9.928938e+00 38 42 51
-1.181065e+00 4.605852e-01 1.013059e+01 40 40 51
-7.190505e-01 4.930254e-01 9.909747e+00 44 48 54
-4.505500e-01 5.130545e-01 9.774860e+00 111 117 116
-1.429945e+00 4.473627e-01 1.023054e+01 47 42 66
-3.336572e-01 5.347060e-01 9.674618e+00 165 166 157
-6.709176e-01 5.356461e-01 9.769443e+00 117 119 110
-5.911440e-01 5.710473e-01 9.643765e+00 39 53 80
-5.751658e-01 5.965893e-01 9.560057e+00 70 77 90
-1.072950e+00 5.701345e-01 9.742823e+00 48 67 103
-2.495487e+00 5.392064e-01 1.059282e+01 27 24 22
-8.952959e-01 6.427510e-01 9.477007e+00 161 163 167
-5.008161e+00 3.589185e-01 1.140789e+01 33 33 32
-8.016900e-01 6.621493e-01 9.356434e+00 146 150 169
-1.182335e+00 6.458584e-01 9.560558e+00 98 113 136
-5.934964e-01 8.028535e-01 8.841657e+00 142 141 149
-2.517071e+00 9.032071e-01 1.084801e+01 108 84 55
-2.447392e+00 9.346705e-01 1.072169e+01 115 90 69
-3.773364e+00 6.873985e-01 1.008925e+01 167 159 150
-3.993987e+00 6.693887e-01 1.016756e+01 84 82 81
-2.372082e+00 9.732417e-01 1.062896e+01 115 93 66
-1.029203e+00 9.686616e-01 8.433020e+00 115 136 165
-1.028786e+00 9.683693e-01 8.445240e+00 115 136 165
-2.260757e+00 1.013150e+00 1.039788e+01 70 58 54
-2.260757e+00 1.013150e+00 1.039788e+01 70 58 54
-8.995059e-01 9.803883e-01 8.403355e+00 132 148 176
-2.201217e+00 1.053335e+00 1.025080e+01 70 56 45
-2.499887e+00 1.102908e+00 1.093066e+01 68 54 43
-3.934210e+00 8.595064e-01 9.554348e+00 176 170 159
-4.152748e+00 9.054303e-01 9.439563e+00 175 169 161
-5.746264e+00 7.865334e-01 1.013165e+01 74 79 49
-2.577606e+00 1.263900e+00 1.111846e+01 73 56 42
-2.577606e+00 1.263900e+00 1.111846e+01 73 56 42
-2.577606e+00 1.263900e+00 1.111846e+01 73 56 42
-4.267709e-01 1.372799e+00 7.098752e+00 132 135 158
-2.683254e+00 1.311062e+00 1.114798e+01 64 55 48
-5.609856e+00 9.745051e-01 9.597983e+00 168 164 153
-7.059942e+00 8.945454e-01 9.814627e+00 107 96 78
-6.657375e+00 9.381430e-01 9.702365e+00 114 102 74
-2.460641e+00 1.401004e+00 1.096467e+01 70 57 42
-2.308085e+00 1.435374e+00 1.068434e+01 71 53 40
-7.052530e+00 9.619803e-01 9.640276e+00 113 101 78
-2.197042e+00 1.458369e+00 1.040788e+01 60 51 37
-2.197042e+00 1.458369e+00 1.040788e+01 60 51 37
-5.511257e+00 1.130325e+00 9.086753e+00 116 118 49
-7.032674e+00 1.001477e+00 9.753806e+00 58 47 33
-7.245535e+00 1.004800e+00 9.558786e+00 116 105 83
-6.956114e+00 1.039487e+00 9.643338e+00 113 103 78
-2.346272e+00 1.510725e+00 1.074354e+01 72 57 42
-7.251413e+00 1.066783e+00 9.629002e+00 119 103 87
-2.518462e+00 1.514117e+00 1.111232e+01 70 67 58
-2.487448e+00 1.526385e+00 1.107592e+01 55 52 43
-7.430958e+00 1.094667e+00 9.369026e+00 113 100 84
-2.545806e+00 1.537734e+00 1.117667e+01 87 84 72
-2.545806e+00 1.537734e+00 1.117667e+01 87 84 72
-2.435071e+00 1.550593e+00 1.097054e+01 47 43 31
-2.432147e+00 1.551610e+00 1.097767e+01 47 43 31
-7.319597e+00 1.132849e+00 9.242444e+00 115 106 80
-2.510914e+00 1.554073e+00 1.111448e+01 25 20 7
-2.510914e+00 1.554073e+00 1.111448e+01 25 20 7
-2.651834e+00 1.562102e+00 1.123437e+01 29 30 28
-2.548490e+00 1.610773e+00 1.118588e+01 58 52 40
-2.414396e+00 1.633845e+00 1.095107e+01 58 54 43
-2.257096e+00 1.687345e+00 1.062085e+01 60 53 37
-2.345069e+00 1.670267e+00 1.084935e+01 56 54 39
-2.416775e+00 1.668316e+00 1.100736e+01 58 54 43
-2.350596e+00 1.705500e+00 1.082479e+01 61 61 49
-2.359812e+00 1.703214e+00 1.085432e+01 67 63 54
-8.025924e+00 1.407947e+00 8.599087e+00 112 100 83
-2.262272e+00 1.752176e+00 1.070937e+01 63 58 48
-2.503440e+00 1.734832e+00 1.119057e+01 75 73 61
-2.503440e+00 1.734832e+00 1.119057e+01 75 73 61
-2.326288e+00 1.821432e+00 1.086282e+01 59 54 44
-2.526750e+00 1.781954e+00 1.123633e+01 19 19 19
-2.527179e+00 1.782752e+00 1.123546e+01 19 19 19
-2.402579e+00 1.819571e+00 1.101904e+01 43 41 31
-2.410051e+00 1.819595e+00 1.100412e+01 43 41 31
-2.531381e+00 1.796018e+00 1.125469e+01 53 46 37
-2.168972e+00 1.874095e+00 1.055945e+01 64 61 49
-2.491628e+00 1.815024e+00 1.117672e+01 51 50 40
-2.473256e+00 1.821122e+00 1.116583e+01 67 65 53
-2.473256e+00 1.821122e+00 1.116583e+01 67 65 53
-2.637895e+00 1.801841e+00 1.130180e+01 41 38 22
-2.637895e+00 1.801841e+00 1.130180e+01 41 38 22
-2.494578e+00 1.845722e+00 1.121674e+01 79 75 64
-2.494578e+00 1.845722e+00 1.121674e+01 79 75 64
-2.459622e+00 1.902695e+00 1.115155e+01 45 41 30
-2.462714e+00 1.901121e+00 1.114325e+01 45 41 30
-2.443186e+00 1.911049e+00 1.112559e+01 53 50 41
-2.443186e+00 1.911049e+00 1.112559e+01 53 50 41
-8.457828e+00 1.972307e+00 6.989716e+00 91 83 65
-2.373941e+00 1.948845e+00 1.097759e+01 69 65 53
-2.205911e+00 1.999549e+00 1.066856e+01 62 58 47
-2.436245e+00 1.951802e+00 1.110501e+01 63 63 53
-2.238728e+00 2.026530e+00 1.070575e+01 59 55 45
-2.238728e+00 2.026530e+00 1.070575e+01 59 55 45
-2.369978e+00 1.987592e+00 1.097589e+01 68 69 54
-2.369978e+00 1.987592e+00 1.097589e+01 68 69 54
-2.835734e+00 1.938504e+00 1.120569e+01 23 26 25
-2.181929e+00 2.045083e+00 1.064029e+01 59 55 44
-2.472214e+00 1.971144e+00 1.118753e+01 70 67 55
-2.154270e+00 2.058764e+00 1.059536e+01 59 52 46
-2.154270e+00 2.058764e+00 1.059536e+01 59 52 46
-2.285915e+00 2.027250e+00 1.084685e+01 44 40 29
-2.671258e+00 1.951805e+00 1.131459e+01 71 67 55
-2.250146e+00 2.043912e+00 1.079680e+01 59 55 45
-2.250146e+00 2.043912e+00 1.079680e+01 59 55 45
-2.188556e+00 2.084915e+00 1.062857e+01 53 49 38
-2.104144e+00 1.143359e-02 1.192798e+01 133 141 90
-2.384645e+00 1.393119e-02 1.199398e+01 81 67 89
-2.341096e+00 1.927743e-02 1.195725e+01 134 138 113
-2.464600e+00 2.799116e-02 1.195312e+01 78 65 91
-1.929933e+00 1.047059e-01 1.158327e+01 80 70 100
-1.853779e+00 1.110251e-01 1.151808e+01 116 104 132
-1.658384e+00 1.202433e-01 1.135211e+01 130 120 130
-2.017051e+00 1.333707e-01 1.150100e+01 160 160 133
-2.008136e+00 1.430392e-01 1.144718e+01 64 54 89
-1.498659e+00 1.647946e-01 1.113653e+01 110 100 104
-8.942283e-01 2.382539e-01 1.069572e+01 159 160 139
-1.556612e+00 2.137941e-01 1.103988e+01 137 129 119
-1.242935e+00 2.609044e-01 1.074846e+01 53 48 74
-3.083679e+00 1.772339e-01 1.166524e+01 142 137 133
-1.039757e+00 3.153657e-01 1.053246e+01 40 38 57
-1.194511e+00 3.474219e-01 1.047030e+01 162 161 142
-1.630876e+00 3.220765e-01 1.066104e+01 89 88 120
-1.230973e+00 3.709147e-01 1.041858e+01 43 41 64
-1.553007e+00 3.869592e-01 1.047387e+01 65 63 71
-1.389819e+00 4.090914e-01 1.034177e+01 58 55 70
-1.470476e+00 4.123524e-01 1.036869e+01 48 36 38
-7.490181e-01 4.777812e-01 9.962765e+00 121 122 111
-3.903338e-01 5.085931e-01 9.715794e+00 60 78 94
-4.886102e-01 5.088125e-01 9.798640e+00 132 129 125
-5.406703e-01 5.108668e-01 9.809114e+00 95 103 101
-6.326534e-01 5.118788e-01 9.828150e+00 53 49 56
-8.721007e-01 5.015064e-01 9.926517e+00 47 62 75
-1.776890e-01 5.415487e-01 9.520254e+00 161 169 160
-8.528974e-01 5.136953e-01 9.868406e+00 68 55 54
-9.780041e-01 5.162620e-01 9.909068e+00 60 64 61
-1.035114e+00 5.495758e-01 9.822378e+00 145 77 86
-8.479911e-01 5.681735e-01 9.714436e+00 53 64 81
-3.227843e-01 6.084025e-01 9.406632e+00 163 166 161
-3.223728e-01 6.088707e-01 9.401641e+00 163 166 161
-4.030513e-01 6.071671e-01 9.448308e+00 61 81 110
-6.525945e-01 5.999952e-01 9.573392e+00 48 67 95
-4.214959e-01 6.291790e-01 9.394506e+00 112 116 131
-4.074130e+00 3.768418e-01 1.113228e+01 180 175 176
-9.355791e-01 6.040781e-01 9.615815e+00 130 132 144
-2.481455e+00 5.488471e-01 1.057681e+01 27 24 24
-2.470681e+00 5.542531e-01 1.055973e+01 26 22 25
-7.435312e-01 6.333903e-01 9.450729e+00 120 128 135
-2.398715e+00 6.079284e-01 1.046974e+01 101 76 58
-5.813787e-01 6.797210e-01 9.268571e+00 97 115 129
-2.364192e+00 6.272768e-01 1.048571e+01 101 76 61
-2.370994e+00 7.714020e-01 1.048956e+01 73 55 45
-2.370994e+00 7.714020e-01 1.048956e+01 73 55 45
-2.563966e+00 8.584492e-01 1.090677e+01 54 42 35
-2.484199e+00 8.610380e-01 1.075078e+01 83 67 64
-2.484199e+00 8.610380e-01 1.075078e+01 83 67 64
-4.117759e+00 5.829552e-01 1.044196e+01 161 156 144
-2.409711e+00 8.984509e-01 1.063957e+01 59 53 48
-4.879322e+00 5.604043e-01 1.070557e+01 163 165 148
-2.538865e+00 9.169524e-01 1.088268e+01 65 51 38
-1.580468e+00 8.205440e-01 9.048518e+00 137 140 148
-5.722450e+00 5.248166e-01 1.087678e+01 149 144 125
-2.434800e+00 9.607149e-01 1.068852e+01 71 63 53
-2.295434e+00 9.975006e-01 1.047850e+01 65 51 38
-2.242444e+00 1.027165e+00 1.032598e+01 67 58 51
-2.272873e+00 1.083741e+00 1.046079e+01 55 42 33
-2.272873e+00 1.083741e+00 1.046079e+01 55 42 33
-8.381875e-01 1.084452e+00 8.065700e+00 184 194 205
-9.183127e-01 1.077315e+00 8.064876e+00 189 195 201
-9.183324e-01 1.095485e+00 8.044038e+00 93 132 168
-8.987950e-01 1.102674e+00 8.005204e+00 100 132 155
-2.518879e+00 1.199246e+00 1.099344e+01 52 43 35
-2.527500e+00 1.195436e+00 1.097309e+01 52 43 35
-2.216010e+00 1.296886e+00 1.040685e+01 68 60 41
-2.257994e+00 1.375751e+00 1.053514e+01 71 54 39
-2.257994e+00 1.375751e+00 1.053514e+01 71 54 39
-1.153532e+00 1.401994e+00 7.152251e+00 135 136 145
-1.153532e+00 1.401994e+00 7.152251e+00 135 136 145
-7.049541e+00 8.823231e-01 9.854700e+00 65 56 47
-2.552683e+00 1.403670e+00 1.112168e+01 77 63 50
-6.756343e+00 9.522759e-01 9.625471e+00 71 64 51
-2.744309e+00 1.393360e+00 1.112909e+01 69 60 50
-2.387870e+00 1.435116e+00 1.085300e+01 65 52 42
-7.098494e+00 9.855483e-01 9.633633e+00 107 102 82
-2.643853e+00 1.458228e+00 1.121471e+01 101 95 73
-6.320964e+00 1.122488e+00 9.096575e+00 103 93 71
-6.541478e+00 1.141183e+00 9.024116e+00 122 108 85
-7.378652e+00 1.074856e+00 9.378769e+00 109 103 79
-7.113149e+00 1.156060e+00 9.165079e+00 115 107 88
-2.384175e+00 1.576686e+00 1.089317e+01 43 38 26
-2.384175e+00 1.576686e+00 1.089317e+01 43 38 26
-2.356453e+00 1.591703e+00 1.082942e+01 77 72 61
-2.356453e+00 1.591703e+00 1.082942e+01 77 72 61
-7.174198e+00 1.202243e+00 9.192124e+00 116 104 83
-2.461939e+00 1.609368e+00 1.106791e+01 56 53 43
-2.461939e+00 1.609368e+00 1.106791e+01 56 53 43
-2.261345e+00 1.643084e+00 1.067296e+01 65 61 51
-2.187759e+00 1.728718e+00 1.046405e+01 75 69 54
-2.187759e+00 1.728718e+00 1.046405e+01 75 69 54
-8.036003e+00 1.379063e+00 8.896928e+00 113 99 80
-2.278180e+00 1.738975e+00 1.075316e+01 63 61 49
-2.361500e+00 1.736572e+00 1.087156e+01 51 50 39
-2.215801e+00 1.784305e+00 1.055202e+01 66 63 52
-2.866375e+00 1.713199e+00 1.112749e+01 105 89 71
-2.778772e+00 1.749364e+00 1.120081e+01 64 60 50
-2.385069e+00 1.797280e+00 1.093989e+01 52 49 40
-2.702742e+00 1.761903e+00 1.125519e+01 68 62 54
-2.240446e+00 1.834995e+00 1.068954e+01 57 56 48
-2.766208e+00 1.829769e+00 1.122633e+01 47 42 29
-8.261590e+00 1.871737e+00 7.252154e+00 107 90 82
-2.223169e+00 1.953845e+00 1.067258e+01 54 51 42
-2.354726e+00 1.928528e+00 1.092517e+01 48 44 38
-8.095860e+00 1.986118e+00 6.817870e+00 106 90 74
-2.406215e+00 1.966916e+00 1.104985e+01 57 53 44
-2.299809e+00 2.020806e+00 1.087106e+01 65 61 50
-2.319006e+00 2.052824e+00 1.092192e+01 53 53 44
-2.208788e+00 2.142233e+00 1.070062e+01 26 32 29
-2.095882e+00 1.647324e-02 1.192491e+01 61 51 52
-1.370336e+00 1.734898e-01 1.111804e+01 92 84 96
-5.650932e-01 2.247864e-01 1.073750e+01 64 59 75
-1.684609e+00 1.180723e-02 1.074294e+01 150 140 139
-1.650440e+00 3.346446e-01 1.068032e+01 98 97 104
-9.666336e-01 4.753950e-01 1.000076e+01 127 136 126
-6.494260e-01 5.073849e-01 9.849205e+00 107 109 95
-6.995827e-01 5.341575e-01 9.784941e+00 76 77 90
-4.488935e-01 5.706041e-01 9.583874e+00 80 89 98
-9.310549e-01 5.400760e-01 9.824393e+00 89 96 102
-6.082857e-01 5.649657e-01 9.661786e+00 76 84 92
-2.433740e+00 5.431982e-01 1.049904e+01 28 28 23
-2.416327e+00 5.520264e-01 1.046645e+01 26 26 23
-2.444180e+00 5.716153e-01 1.056357e+01 31 29 30
-2.399478e+00 5.623260e-01 1.046985e+01 28 25 20
-4.158410e+00 5.939532e-01 1.038637e+01 158 153 140
-4.834971e+00 5.582585e-01 1.070088e+01 86 77 98
-1.701286e+00 8.069820e-01 9.175051e+00 148 156 162
-2.563452e+00 9.417200e-01 1.096419e+01 101 85 68
-2.563452e+00 9.417200e-01 1.096419e+01 101 85 68
-3.760121e+00 6.814818e-01 1.010525e+01 167 160 150
-2.534965e+00 9.583065e-01 1.090496e+01 58 41 27
-5.673008e+00 5.235091e-01 1.086455e+01 135 135 51
-5.020001e+00 5.969148e-01 1.061882e+01 163 152 133
-5.020001e+00 5.969148e-01 1.061882e+01 163 152 133
-9.239076e-01 9.477389e-01 8.492679e+00 119 151 176
-5.810121e+00 5.637813e-01 1.077107e+01 121 115 98
-6.892850e-01 1.055739e+00 8.050711e+00 107 146 174
-5.666465e-01 1.070547e+00 8.007825e+00 137 158 179
-6.755907e-01 1.088881e+00 7.996803e+00 174 181 199
-2.252496e+00 9.666072e-01 8.838311e+00 197 203 218
-6.154509e-01 1.119169e+00 7.912212e+00 180 182 183
-6.062862e-01 1.130824e+00 7.886236e+00 124 137 126
-4.545199e+00 8.268075e-01 9.718450e+00 167 160 142
-8.319032e-01 1.143267e+00 7.871333e+00 125 147 161
-1.582282e+00 1.192824e+00 7.956595e+00 117 133 145
-1.744412e+00 1.219877e+00 7.908412e+00 106 116 133
-1.773569e+00 1.237685e+00 7.826497e+00 108 123 147
