ply
format ascii 1.0
element face 0
property list uchar int vertex_indices
element vertex 944
property float x
property float y
property float z
property uchar diffuse_red
property uchar diffuse_green
property uchar diffuse_blue
end_header
-2.102805e+00 -1.583067e-02 1.210105e+01 89 81 77
-2.102805e+00 -1.583067e-02 1.210105e+01 89 81 77
-5.125403e-01 -1.702565e-01 1.191657e+01 27 23 19
-5.125403e-01 -1.702565e-01 1.191657e+01 27 23 19
-1.962666e+00 -1.702767e-02 1.207542e+01 116 110 99
-1.040054e+00 -9.694187e-02 1.199502e+01 27 22 22
-5.268220e-01 -1.555589e-01 1.187096e+01 34 22 22
-5.819227e-01 -1.499398e-01 1.187854e+01 43 27 32
-9.635327e-01 -1.063316e-01 1.192758e+01 135 133 120
-1.915490e+00 -1.247332e-02 1.202958e+01 104 93 94
-4.802537e-01 -1.518176e-01 1.184933e+01 45 30 38
-5.829159e-01 -1.418530e-01 1.186076e+01 124 123 102
-1.071116e+00 -9.262822e-02 1.190465e+01 29 20 27
-6.615601e-01 -1.256602e-01 1.183438e+01 127 127 110
-2.247336e+00 3.390657e-02 1.201971e+01 145 144 123
-1.145688e+00 -7.083239e-02 1.187985e+01 27 24 20
-7.246803e-01 -1.124679e-01 1.182281e+01 35 31 35
-7.295020e-01 -1.025366e-01 1.180884e+01 127 127 108
-9.697258e-01 -5.327022e-02 1.174048e+01 42 41 56
-1.044821e+00 -3.476836e-02 1.171351e+01 61 58 77
-4.686202e+00 2.026429e-01 1.178593e+01 34 33 24
-4.686202e+00 2.026429e-01 1.178593e+01 34 33 24
-1.707093e+00 5.553276e-02 1.173175e+01 34 33 43
-3.572006e-01 -6.839634e-02 1.154948e+01 37 32 33
-3.572006e-01 -6.839634e-02 1.154948e+01 37 32 33
-6.955498e-01 2.170261e-03 1.143551e+01 76 81 111
-6.955498e-01 2.170261e-03 1.143551e+01 76 81 111
-1.971170e+00 1.151681e-01 1.157902e+01 153 153 142
-2.026306e+00 1.394685e-01 1.156167e+01 55 53 77
-1.107491e+00 5.139141e-02 1.143979e+01 73 75 112
-1.139498e+00 6.472060e-02 1.140835e+01 72 78 105
-1.764960e+00 1.301765e-01 1.146581e+01 61 64 79
-1.864355e-01 1.819556e-02 1.131482e+01 135 133 113
-2.583063e-01 2.144792e-02 1.122657e+01 147 142 139
-1.911742e+00 1.657695e-01 1.141119e+01 57 58 78
-4.321804e-01 4.179323e-02 1.121047e+01 79 85 108
-1.136848e+00 1.032917e-01 1.129810e+01 160 157 164
-1.173637e+00 1.282621e-01 1.130857e+01 71 73 110
-8.728790e-03 3.015972e-02 1.109921e+01 39 34 41
-8.728790e-03 3.015972e-02 1.109921e+01 39 34 41
-1.871217e-01 7.107911e-02 1.103179e+01 71 77 93
-1.924319e-01 9.471863e-02 1.110222e+01 68 69 91
-1.504541e+00 1.907315e-01 1.116458e+01 148 150 138
-7.543636e-01 1.315903e-01 1.103885e+01 79 86 106
-5.929737e-02 8.549475e-02 1.095245e+01 59 64 72
-3.926005e-01 1.192196e-01 1.095381e+01 156 163 159
-8.756684e-01 1.592308e-01 1.101571e+01 75 78 114
-3.652363e-01 1.378172e-01 1.089267e+01 159 162 162
-3.652363e-01 1.378172e-01 1.089267e+01 159 162 162
-1.079698e+00 2.152222e-01 1.098952e+01 156 153 157
-1.229194e+00 2.484649e-01 1.092193e+01 146 148 142
-1.519911e+00 2.700757e-01 1.093336e+01 148 145 146
-8.924603e-01 2.919495e-01 1.069004e+01 162 161 159
-8.905106e-01 2.921283e-01 1.068985e+01 162 161 159
-1.102302e+00 3.068324e-01 1.070225e+01 57 68 85
-1.414145e+00 3.642274e-01 1.059509e+01 155 157 156
-2.602729e-02 2.962245e-01 1.043729e+01 169 170 175
-4.949303e+00 5.667185e-01 1.072894e+01 160 156 138
-2.717049e+00 6.289741e-01 1.104473e+01 68 65 55
-4.376989e-01 5.001225e-01 9.912503e+00 59 79 106
-8.697764e-01 5.296571e-01 9.936016e+00 106 107 109
-3.919609e+00 7.070338e-01 1.018383e+01 154 147 130
-1.190655e-01 5.121737e-01 9.825537e+00 101 112 124
-4.100763e+00 7.201120e-01 1.017985e+01 152 149 136
-4.110610e+00 7.216225e-01 1.018772e+01 152 149 136
-3.975104e+00 7.172511e-01 1.016159e+01 154 152 134
-4.051862e+00 7.239266e-01 1.016626e+01 103 104 100
-4.010852e+00 7.252846e-01 1.012846e+01 156 147 142
-4.391958e+00 7.621267e-01 1.003411e+01 92 90 95
-4.364435e+00 7.752033e-01 1.011869e+01 92 90 95
-1.342073e-01 5.476071e-01 9.629491e+00 88 101 116
-4.165571e+00 7.675490e-01 1.006957e+01 157 153 143
-4.439810e+00 7.744158e-01 1.002331e+01 108 108 119
-4.414870e+00 7.860011e-01 1.009809e+01 108 108 119
-4.398635e+00 7.912870e-01 1.003997e+01 158 152 143
-4.247875e+00 7.875616e-01 1.003542e+01 160 155 147
-4.292581e+00 7.951669e-01 1.000031e+01 162 157 152
-4.467285e+00 8.438675e-01 9.942159e+00 159 156 149
-1.971752e-01 6.348917e-01 9.393715e+00 160 160 155
-3.985053e-01 6.631796e-01 9.376149e+00 52 57 57
-4.023653e+00 9.249898e-01 9.520501e+00 176 172 172
-3.948868e+00 9.283551e-01 9.495075e+00 178 175 179
-4.001211e+00 9.286122e-01 9.485521e+00 109 112 131
-7.144748e-01 8.041129e-01 9.018699e+00 98 109 129
-3.509246e+00 1.057105e+00 9.054522e+00 182 185 188
-3.642534e+00 1.078370e+00 8.898324e+00 179 177 179
-3.642956e+00 1.077843e+00 8.894286e+00 179 177 179
-2.802292e+00 1.251612e+00 1.117068e+01 70 65 52
-3.764986e+00 1.112487e+00 8.903385e+00 180 179 183
-3.806184e+00 1.123067e+00 8.799631e+00 178 179 178
-2.874229e+00 1.347968e+00 1.115211e+01 51 45 43
-3.380554e+00 1.225798e+00 8.435167e+00 175 173 174
-2.858323e+00 1.384539e+00 1.120756e+01 40 39 35
4.267872e-01 1.160578e+00 7.539562e+00 153 149 139
4.169219e-01 1.200455e+00 7.407203e+00 76 67 44
3.613104e-01 1.214701e+00 7.381970e+00 70 64 36
6.463369e-02 1.244867e+00 7.407510e+00 150 146 135
2.428614e-01 1.247205e+00 7.325089e+00 84 82 49
1.241354e-01 1.270856e+00 7.253752e+00 94 87 61
1.500945e-02 1.306285e+00 7.226756e+00 79 71 53
-2.658114e+00 1.956341e+00 1.144676e+01 17 15 14
-2.757329e+00 1.983344e+00 1.140633e+01 16 15 12
-3.556154e-01 2.420710e+00 1.148234e+01 110 115 134
-2.802950e+00 -3.600038e-02 1.233794e+01 140 135 116
-2.946696e+00 -2.215991e-03 1.226758e+01 136 133 124
-3.098247e+00 7.214368e-03 1.225599e+01 121 123 85
-2.743398e+00 5.849454e-03 1.223307e+01 123 125 96
-2.743398e+00 5.849454e-03 1.223307e+01 123 125 96
-1.706900e+00 -8.690565e-02 1.215827e+01 83 69 82
-1.773783e+00 -7.733389e-02 1.214641e+01 147 149 118
-2.112908e+00 -3.570806e-02 1.218135e+01 156 152 133
-2.772219e+00 1.242213e-02 1.220250e+01 126 127 94
-2.643324e+00 9.855681e-03 1.219553e+01 65 48 70
-3.042120e+00 4.001195e-02 1.221114e+01 145 140 123
-2.295348e+00 2.305477e-02 1.207319e+01 62 48 74
-1.091151e+00 -1.000836e-01 1.193235e+01 42 34 54
-2.961901e+00 8.522891e-02 1.203295e+01 127 132 92
-3.072578e-01 -9.512764e-02 1.160792e+01 48 36 48
-1.795545e+00 6.644116e-02 1.173185e+01 36 34 47
-4.537016e-01 -5.812029e-02 1.155383e+01 42 39 36
-1.851836e+00 9.621193e-02 1.165012e+01 150 152 148
-1.819190e+00 9.282424e-02 1.163132e+01 63 62 87
-1.819190e+00 9.282424e-02 1.163132e+01 63 62 87
-9.829927e-01 2.939269e-02 1.147308e+01 73 79 99
-1.563553e+00 9.121960e-02 1.155942e+01 50 47 73
-1.057557e+00 4.677033e-02 1.145329e+01 74 80 100
-1.160911e+00 5.965664e-02 1.144942e+01 69 72 103
-1.178737e+00 7.747590e-02 1.149596e+01 69 72 103
-1.661216e+00 1.091845e-01 1.151508e+01 65 64 78
-1.699887e+00 1.187269e-01 1.150052e+01 58 61 79
-1.702684e+00 1.207792e-01 1.151672e+01 58 61 79
-2.112570e-01 1.605354e-02 1.133042e+01 32 33 26
-1.258563e+00 1.039987e-01 1.142036e+01 65 68 90
-1.665565e+00 1.298002e-01 1.143375e+01 66 67 87
-1.761656e-01 3.697530e-03 1.124293e+01 138 128 130
-2.500278e-01 1.205716e-02 1.124354e+01 57 57 65
-1.216322e+00 1.265766e-01 1.133012e+01 67 72 94
-1.460799e+00 1.444943e-01 1.132500e+01 54 58 84
-1.499345e+00 1.628542e-01 1.127115e+01 57 55 78
-1.279447e-01 5.485394e-02 1.106969e+01 58 60 69
-1.279447e-01 5.485394e-02 1.106969e+01 58 60 69
-1.623520e+00 1.857726e-01 1.125084e+01 150 152 142
-1.513615e+00 1.757642e-01 1.122839e+01 147 145 133
-1.641878e-01 6.130735e-02 1.105077e+01 70 70 87
-1.417151e+00 1.692016e-01 1.121512e+01 142 145 132
-1.428059e+00 1.676047e-01 1.120191e+01 44 41 57
-1.800413e+00 2.093357e-01 1.121398e+01 49 52 64
-1.472607e+00 1.836485e-01 1.116081e+01 142 145 127
-7.333231e-01 1.235503e-01 1.105935e+01 76 81 108
-7.509481e-01 1.260563e-01 1.106423e+01 157 162 164
-6.437727e-01 1.210351e-01 1.104490e+01 86 90 119
-2.753496e-02 7.362474e-02 1.096327e+01 54 53 58
-7.002182e-02 1.015588e-01 1.100402e+01 147 148 135
-8.205212e-01 1.486827e-01 1.101312e+01 81 91 117
-1.682981e-01 1.252022e-01 1.098311e+01 154 151 146
-2.792237e-01 1.470710e-01 1.097703e+01 85 89 107
-2.792237e-01 1.470710e-01 1.097703e+01 85 89 107
-4.973598e-01 1.429657e-01 1.091961e+01 159 163 163
-4.723452e-01 1.425720e-01 1.090449e+01 86 91 117
-9.829851e-01 1.825916e-01 1.096627e+01 154 159 163
-2.539603e-01 1.281921e-01 1.086346e+01 82 87 114
-9.956453e-01 1.921401e-01 1.095959e+01 74 79 98
-1.131949e+00 2.197311e-01 1.099056e+01 69 73 112
-1.129618e+00 2.300331e-01 1.090929e+01 73 79 109
-4.325065e-01 1.748224e-01 1.080354e+01 159 167 157
-1.491889e+00 2.594870e-01 1.093794e+01 148 147 137
-1.648008e+00 2.871085e-01 1.088575e+01 79 77 95
-8.737460e-01 2.335011e-01 1.079266e+01 78 83 108
-6.579239e-01 2.225519e-01 1.074485e+01 81 89 116
-1.641837e+00 2.953327e-01 1.084735e+01 157 158 152
-7.281522e-01 2.390139e-01 1.071612e+01 77 84 111
-8.697417e-01 2.740741e-01 1.067441e+01 75 87 111
-8.131270e-01 2.720025e-01 1.065274e+01 81 89 107
2.897845e-01 2.197253e-01 1.060238e+01 141 135 121
-1.260613e+00 3.733818e-01 1.051006e+01 63 64 76
-1.278996e+00 3.820829e-01 1.052249e+01 155 154 155
-1.309771e+00 3.819732e-01 1.051500e+01 74 82 103
-4.139633e+00 6.083766e-01 1.055790e+01 149 144 126
6.794003e-01 3.940418e-01 9.905737e+00 138 135 141
-9.579796e-01 5.041558e-01 1.004560e+01 66 68 72
-5.042314e-01 4.982566e-01 9.944099e+00 69 75 98
-4.024836e+00 6.876532e-01 1.026768e+01 107 102 107
-4.032191e+00 6.828147e-01 1.024091e+01 107 102 107
-4.065788e+00 6.989700e-01 1.025522e+01 103 101 105
-4.115744e+00 7.113126e-01 1.023119e+01 97 97 103
-3.805047e+00 6.982446e-01 1.017792e+01 149 148 128
-4.122428e+00 7.228629e-01 1.019443e+01 150 146 135
-3.947701e+00 7.140204e-01 1.016666e+01 152 147 128
-4.415506e-02 5.149860e-01 9.671993e+00 108 118 129
-2.451510e-01 5.755595e-01 9.699882e+00 120 120 128
-8.658461e-01 6.052187e-01 9.700834e+00 118 118 126
-1.012966e+00 6.210984e-01 9.686443e+00 161 161 161
-1.009235e+00 6.158226e-01 9.670934e+00 161 161 161
-4.442324e+00 8.378754e-01 9.933097e+00 161 156 152
-2.920071e+00 9.869532e-01 1.103478e+01 61 58 47
-6.481020e-01 6.889358e-01 9.353788e+00 80 95 111
2.088850e-01 6.474734e-01 9.177242e+00 114 126 154
-4.050000e+00 8.732860e-01 9.658865e+00 168 165 154
-4.053447e+00 8.817927e-01 9.668704e+00 168 165 154
-5.398939e+00 9.374229e-01 9.723166e+00 131 134 100
-3.790082e+00 8.793517e-01 9.580697e+00 109 115 132
-4.107850e+00 9.046228e-01 9.608953e+00 114 114 120
-3.799288e+00 8.958425e-01 9.557021e+00 177 176 182
-5.440894e+00 9.798388e-01 9.556375e+00 81 73 60
-4.203098e+00 9.343907e-01 9.499900e+00 167 164 161
-4.215348e+00 9.438066e-01 9.538742e+00 166 165 159
-4.124977e+00 9.542433e-01 9.410520e+00 110 109 124
-4.124977e+00 9.542433e-01 9.410520e+00 110 109 124
-2.887290e+00 1.153008e+00 1.109660e+01 52 46 39
-3.463878e+00 1.026115e+00 9.119750e+00 182 183 185
-3.355977e+00 1.024987e+00 9.040844e+00 176 177 174
-3.436694e+00 1.042147e+00 9.004510e+00 178 176 172
-3.436694e+00 1.042147e+00 9.004510e+00 178 176 172
-3.501584e+00 1.082051e+00 8.923367e+00 109 115 135
-3.845554e+00 1.102248e+00 8.924450e+00 105 112 129
-2.806886e+00 1.333902e+00 1.119210e+01 43 33 25
-8.364118e-01 1.111051e+00 8.028449e+00 88 113 126
-2.633022e+00 1.494098e+00 1.133829e+01 92 80 65
-1.079801e-02 1.324325e+00 7.201152e+00 156 151 140
-2.835207e+00 1.583228e+00 1.123964e+01 95 83 59
-2.635118e+00 1.601499e+00 1.136789e+01 19 16 17
-2.586655e+00 1.924171e+00 1.148047e+01 45 46 31
-2.241252e+00 2.285640e+00 1.075796e+01 161 163 175
-2.359326e+00 6.251868e-01 1.353687e+01 162 161 126
-9.768228e-01 -1.079086e-01 1.191581e+01 56 49 67
-9.768228e-01 -1.079086e-01 1.191581e+01 56 49 67
-1.228133e+00 -6.158436e-02 1.188496e+01 128 133 101
-7.832462e-01 -5.196134e-02 1.188626e+01 59 48 45
-2.897538e-01 -8.244632e-02 1.157504e+01 60 53 43
-1.165746e+00 2.035134e-03 1.166079e+01 151 152 146
-7.614565e-01 3.115736e-02 1.137984e+01 160 159 170
-1.946455e+00 1.746082e-01 1.140802e+01 72 71 96
1.226273e-02 1.305953e-01 1.090742e+01 142 139 127
-3.497743e-01 1.656595e-01 1.090992e+01 147 156 166
-1.214826e+00 2.341139e-01 1.092055e+01 50 52 70
-1.581025e+00 2.745693e-01 1.093246e+01 62 60 83
-1.568494e+00 2.775139e-01 1.093585e+01 141 144 126
-8.206670e-01 2.229410e-01 1.081305e+01 162 163 174
-9.035737e-01 2.373655e-01 1.080285e+01 81 85 114
-1.513869e+00 3.080865e-01 1.079143e+01 48 49 62
-1.404687e-01 2.239248e-01 1.065269e+01 88 101 116
-1.507488e+00 3.188144e-01 1.074908e+01 62 65 87
-4.312902e+00 5.068507e-01 1.097048e+01 81 75 83
-5.569527e-01 2.843226e-01 1.062869e+01 160 161 166
-1.162136e+00 3.618548e-01 1.057894e+01 153 153 154
-1.513949e+00 3.859325e-01 1.058012e+01 74 73 87
-4.834851e+00 5.898821e-01 1.086792e+01 111 100 99
-1.318916e+00 3.889588e-01 1.049295e+01 153 158 155
-5.090975e+00 6.012471e-01 1.068519e+01 134 136 106
-5.090975e+00 6.012471e-01 1.068519e+01 134 136 106
-1.340133e+00 4.040423e-01 1.045235e+01 79 81 106
-1.367334e+00 4.071802e-01 1.044999e+01 82 84 103
-5.082100e+00 6.062310e-01 1.066029e+01 142 137 112
-5.082100e+00 6.062310e-01 1.066029e+01 142 137 112
-1.228383e+00 4.338768e-01 1.030639e+01 158 165 159
-4.221075e+00 6.208066e-01 1.052727e+01 138 137 116
-4.239798e+00 6.107517e-01 1.046968e+01 138 137 116
-4.181689e+00 6.256077e-01 1.051633e+01 79 75 79
-2.902384e+00 6.712969e-01 1.095441e+01 65 63 50
2.297122e-01 3.865235e-01 1.011383e+01 121 133 155
2.848956e-01 3.808156e-01 9.990954e+00 167 169 181
-9.876957e-01 4.844959e-01 1.014807e+01 150 147 134
-5.556425e-01 5.101553e-01 9.923977e+00 74 78 87
-4.291544e+00 7.099859e-01 1.021470e+01 154 149 137
-4.190638e-01 5.152870e-01 9.865178e+00 145 147 143
-5.131914e+00 7.464937e-01 1.017788e+01 142 140 113
-3.795559e+00 7.028057e-01 1.015247e+01 82 77 85
-4.288035e+00 7.326022e-01 1.022184e+01 75 75 86
-3.831273e+00 7.220522e-01 1.009640e+01 156 159 145
-4.282142e+00 7.380833e-01 1.010318e+01 99 96 97
-4.175323e+00 7.583845e-01 1.006065e+01 155 154 148
-8.859705e-01 5.979563e-01 9.715754e+00 76 87 106
-2.542447e+00 9.321117e-01 1.106339e+01 66 60 48
-3.913073e+00 8.115658e-01 9.846720e+00 153 158 149
-2.795817e+00 9.913624e-01 1.110821e+01 93 87 61
-3.962157e+00 8.671633e-01 9.668322e+00 127 129 138
-2.914965e+00 1.024228e+00 1.106835e+01 94 87 62
-4.008186e+00 8.918248e-01 9.623425e+00 168 167 162
-4.235221e+00 9.068340e-01 9.643886e+00 162 163 152
-4.231192e+00 9.348051e-01 9.556536e+00 116 115 121
-4.231192e+00 9.348051e-01 9.556536e+00 116 115 121
-3.577170e+00 9.122808e-01 9.468526e+00 109 118 146
-2.890460e+00 1.078316e+00 1.107461e+01 46 43 34
-3.992431e+00 9.371955e-01 9.434315e+00 176 174 175
-1.884914e+00 8.506147e-01 9.239675e+00 112 122 132
-2.723977e+00 1.164595e+00 1.119408e+01 94 83 60
-2.853317e+00 1.182017e+00 1.112271e+01 59 50 43
-2.826503e+00 1.188213e+00 1.113884e+01 97 86 68
-3.414815e+00 1.020916e+00 9.043382e+00 105 115 130
-3.238826e+00 1.018329e+00 8.950247e+00 79 88 97
-3.497100e+00 1.036558e+00 9.075702e+00 104 118 140
-3.497100e+00 1.036558e+00 9.075702e+00 104 118 140
-3.279191e+00 1.027972e+00 9.027114e+00 82 91 103
-3.334193e+00 1.029441e+00 9.040010e+00 86 100 116
-3.495788e+00 1.032250e+00 8.977313e+00 113 123 145
-3.495788e+00 1.032250e+00 8.977313e+00 113 123 145
-3.594328e+00 1.038305e+00 9.014886e+00 117 124 149
-3.660722e+00 1.056602e+00 9.018963e+00 111 119 136
-2.892572e+00 1.218533e+00 1.112378e+01 22 17 18
-2.892572e+00 1.218533e+00 1.112378e+01 22 17 18
-3.355453e+00 1.047528e+00 8.988631e+00 100 102 122
-3.395154e+00 1.056164e+00 8.964503e+00 94 113 127
-3.719293e+00 1.080175e+00 8.908298e+00 113 121 140
-3.665643e+00 1.104945e+00 8.869375e+00 104 112 123
-6.660204e-01 1.007905e+00 8.338176e+00 84 93 102
-3.981627e+00 1.148654e+00 8.772695e+00 124 125 148
-3.903690e+00 1.186282e+00 8.686369e+00 119 126 140
-6.501228e+00 1.333024e+00 8.398907e+00 93 83 66
-6.501228e+00 1.333024e+00 8.398907e+00 93 83 66
-4.340063e+00 1.277295e+00 8.483150e+00 124 121 120
-6.459704e+00 1.358526e+00 8.332363e+00 49 42 27
-6.400870e+00 1.360443e+00 8.262857e+00 53 46 28
-1.047116e-01 1.186586e+00 7.602987e+00 115 113 97
-2.385367e-01 1.230427e+00 7.537693e+00 120 117 116
-6.745340e-02 1.249795e+00 7.409802e+00 104 99 83
-1.522084e-01 1.288599e+00 7.297441e+00 105 105 96
-2.718843e+00 1.501490e+00 1.128692e+01 43 39 32
-2.720041e+00 1.535222e+00 1.129662e+01 90 81 65
-2.788408e+00 1.617393e+00 1.128024e+01 47 41 35
-2.777865e+00 1.624768e+00 1.128585e+01 85 77 58
-2.839755e+00 1.629833e+00 1.125368e+01 33 31 28
-2.789938e+00 1.650860e+00 1.128954e+01 95 87 72
-2.614367e+00 1.848275e+00 1.144442e+01 47 47 37
-2.721754e+00 1.876504e+00 1.138980e+01 61 61 53
-2.645274e+00 1.939362e+00 1.145066e+01 97 90 75
-2.645339e+00 1.940034e+00 1.145100e+01 97 90 75
-2.688976e+00 1.970249e+00 1.143382e+01 20 16 12
-2.734152e+00 1.973481e+00 1.140512e+01 90 89 73
-2.630030e+00 2.007601e+00 1.147680e+01 19 16 11
-2.630113e+00 2.007887e+00 1.147989e+01 19 16 11
-2.536611e+00 2.069178e+00 1.152326e+01 139 132 126
-2.064307e+00 -1.253605e-03 1.206411e+01 114 108 87
-3.062006e+00 1.144095e-01 1.201781e+01 152 148 128
-7.293109e-01 -8.713767e-02 1.178431e+01 134 134 126
2.836069e+00 -3.735321e+00 2.224626e+00 137 135 143
-1.897889e+00 8.442397e-02 1.168821e+01 76 70 96
-4.527929e-01 -2.175852e-02 1.159729e+01 64 54 79
-1.942320e+00 1.124442e-01 1.163859e+01 141 145 131
-3.174061e-01 5.029337e-02 1.130424e+01 140 141 135
-1.058765e+00 8.610334e-02 1.129295e+01 146 145 152
-3.055796e-01 5.186131e-02 1.127837e+01 95 91 103
-1.463617e+00 1.304420e-01 1.131469e+01 137 133 127
-1.658819e+00 1.808369e-01 1.129631e+01 75 76 101
-4.120290e+00 3.715351e-01 1.137028e+01 96 95 74
-1.604945e+00 2.082254e-01 1.114545e+01 142 142 132
-1.516257e-01 1.296337e-01 1.096963e+01 103 103 110
-1.516257e-01 1.296337e-01 1.096963e+01 103 103 110
7.284955e-02 1.650249e-01 1.079409e+01 139 138 133
-8.286321e-01 2.238832e-01 1.080252e+01 159 158 158
-8.170440e-01 2.270827e-01 1.077606e+01 102 108 121
-1.641155e+00 3.055798e-01 1.083010e+01 101 98 107
-4.846533e+00 5.813085e-01 1.088873e+01 112 106 101
-5.543779e-02 2.921784e-01 1.046105e+01 112 115 130
-4.986810e+00 5.821629e-01 1.071568e+01 106 96 97
-4.122365e+00 5.872825e-01 1.054251e+01 77 70 71
3.351604e-01 3.456408e-01 1.013559e+01 127 136 143
3.835694e-01 3.240812e-01 1.004799e+01 127 136 143
-7.492288e+00 -4.838369e-01 4.552011e+00 70 65 53
-4.201842e+00 6.189600e-01 1.055695e+01 64 59 57
-4.221201e+00 6.064574e-01 1.049687e+01 64 59 57
-7.514944e+00 -4.685408e-01 4.518585e+00 143 147 120
-4.279582e+00 6.456986e-01 1.048863e+01 66 64 71
-3.864298e+00 6.819109e-01 1.023733e+01 80 70 78
-3.784875e+00 6.903031e-01 1.018966e+01 85 84 72
-1.166609e+00 5.866415e-01 9.950555e+00 104 105 117
-3.817408e+00 7.204989e-01 1.009156e+01 80 80 83
-4.367461e+00 7.542075e-01 1.003108e+01 152 148 145
-1.024996e+00 6.073576e-01 9.737259e+00 100 116 133
-4.313974e+00 7.677185e-01 9.996568e+00 86 86 85
9.525978e-01 5.097316e-01 9.360354e+00 154 166 188
-3.886846e+00 8.065201e-01 9.852773e+00 165 162 166
6.250138e-01 5.895704e-01 9.216987e+00 153 164 189
-2.781961e+00 9.872297e-01 1.111599e+01 92 80 61
-4.127910e-01 6.756032e-01 9.363546e+00 77 78 83
-2.782834e+00 1.020213e+00 1.112691e+01 58 49 40
-2.902033e+00 1.014332e+00 1.103381e+01 95 85 60
-3.752435e+00 8.716379e-01 9.644824e+00 105 109 125
-5.426701e+00 9.509385e-01 9.822997e+00 142 138 111
-3.429793e+00 8.728203e-01 9.495849e+00 103 104 122
-3.560383e+00 8.973914e-01 9.518445e+00 97 104 129
-3.936610e+00 9.102496e-01 9.525474e+00 98 105 117
-4.349186e-01 7.397027e-01 8.790608e+00 164 163 158
-3.925881e+00 9.974283e-01 9.276720e+00 182 183 188
-4.087372e+00 1.020764e+00 9.202771e+00 175 173 180
-2.754534e+00 1.172515e+00 1.117507e+01 81 72 53
-2.903951e+00 1.174759e+00 1.111778e+01 93 88 66
-3.334100e+00 1.008839e+00 9.112478e+00 109 112 119
-3.342663e+00 1.002731e+00 9.039086e+00 109 112 119
-3.220527e+00 1.009992e+00 9.059146e+00 158 157 158
-3.404650e+00 1.039633e+00 9.098289e+00 180 177 184
-3.541613e+00 1.041134e+00 8.991865e+00 127 132 154
-3.637225e+00 1.103765e+00 8.817045e+00 170 173 178
-3.743290e+00 1.111352e+00 8.860379e+00 173 172 170
-3.254358e+00 1.091798e+00 8.716197e+00 100 106 101
-3.310926e+00 1.106299e+00 8.777668e+00 162 159 160
-3.278888e+00 1.109071e+00 8.786741e+00 90 99 100
-3.290546e+00 1.116595e+00 8.764220e+00 165 167 167
-3.310303e+00 1.118752e+00 8.747552e+00 102 105 106
-3.664052e+00 1.133359e+00 8.809857e+00 113 119 135
-3.468557e+00 1.129457e+00 8.686899e+00 169 173 171
-3.595501e+00 1.184209e+00 8.645884e+00 119 122 133
-4.220850e+00 1.210906e+00 8.702041e+00 131 129 134
-4.408815e+00 1.231302e+00 8.601860e+00 133 132 135
-3.746777e+00 1.215116e+00 8.606594e+00 173 178 186
-3.406557e+00 1.210105e+00 8.505964e+00 166 169 172
-1.913800e-01 1.111295e+00 7.856592e+00 129 134 128
-1.472691e+00 1.168136e+00 8.117528e+00 138 144 150
2.031557e-01 1.115106e+00 7.745263e+00 118 114 97
2.031557e-01 1.115106e+00 7.745263e+00 118 114 97
-3.408470e+00 1.266587e+00 8.359507e+00 142 148 162
-4.537801e+00 1.303589e+00 8.436326e+00 157 162 168
1.061623e-01 1.136202e+00 7.699334e+00 107 105 86
1.548658e-01 1.185631e+00 7.537514e+00 113 111 94
-6.184137e+00 1.454129e+00 8.002947e+00 99 88 66
-6.324732e+00 1.457694e+00 7.966733e+00 89 81 64
-5.719447e+00 1.563832e+00 7.649376e+00 58 54 45
-2.859408e+00 1.592314e+00 1.122751e+01 89 79 61
-2.700510e+00 1.628304e+00 1.133656e+01 94 82 65
-2.705463e+00 1.693183e+00 1.134984e+01 29 19 12
-2.607847e+00 1.927012e+00 1.146937e+01 88 84 73
-2.762529e+00 1.971335e+00 1.138975e+01 19 18 10
-2.809114e+00 2.013588e+00 1.137161e+01 79 78 67
-2.809136e+00 2.013534e+00 1.137127e+01 79 78 67
-2.675138e+00 2.022525e+00 1.145458e+01 25 23 11
-2.675138e+00 2.022525e+00 1.145458e+01 25 23 11
-2.828225e+00 2.046390e+00 1.136830e+01 80 76 65
-2.803211e+00 2.043979e+00 1.139550e+01 97 95 82
-2.803211e+00 2.043979e+00 1.139550e+01 97 95 82
-2.546831e+00 2.063778e+00 1.152982e+01 47 43 31
-2.546246e+00 1.828988e+00 1.065067e+01 22 22 17
-3.750808e+00 2.773987e-01 1.152316e+01 99 97 77
-1.272654e+00 5.484155e-01 9.634709e+00 177 175 180
-2.590959e+00 6.373387e-01 1.102019e+01 99 78 57
-2.871848e+00 9.160263e-01 1.102693e+01 50 50 38
-1.437916e+00 4.414238e-02 1.173983e+01 160 157 152
-1.261010e+00 6.516855e-02 1.151281e+01 159 158 156
-2.145571e+00 4.492512e-02 1.189503e+01 41 34 41
-1.574319e-01 4.929393e-01 9.738980e+00 117 124 137
-3.918874e+00 3.542954e-01 1.153722e+01 160 156 145
-2.487716e+00 5.226317e-01 1.074704e+01 31 27 27
-1.348284e+00 4.460983e-02 1.181604e+01 160 157 152
-8.036073e-01 3.954910e-01 1.034394e+01 176 177 182
-3.660272e+00 2.889530e-01 1.155827e+01 110 67 50
-1.019929e+00 4.383624e-01 1.011611e+01 179 178 184
-1.023908e+00 4.437238e-01 1.014075e+01 179 178 184
-8.053238e-01 4.422550e-01 9.912365e+00 120 131 137
-3.927957e+00 3.667986e-01 1.152428e+01 157 153 142
-2.168660e+00 1.721410e+00 1.054446e+01 28 30 25
-1.512448e+00 3.388187e-02 1.184029e+01 64 57 70
-1.513751e+00 4.256468e-02 1.185912e+01 64 57 70
-2.222682e+00 1.433266e-02 1.209490e+01 150 147 132
-4.608212e-01 1.345478e-01 1.121700e+01 159 157 158
-5.181203e-01 1.386004e-01 1.116631e+01 159 157 160
-5.099603e-01 1.304523e-01 1.114526e+01 159 157 160
-1.119243e+00 2.552731e-01 1.081939e+01 158 157 155
-7.403433e-01 3.036367e-01 1.059941e+01 170 170 172
-9.686185e-01 4.485065e-01 1.035299e+01 180 179 184
-1.151066e+00 4.879403e-01 1.014074e+01 178 178 179
-2.623945e+00 1.751751e+00 1.140114e+01 18 19 14
-2.623945e+00 1.751751e+00 1.140114e+01 18 19 14
-1.464958e+00 3.860431e-02 1.188169e+01 156 153 144
-9.723498e-01 5.907514e-02 1.150714e+01 162 161 159
-4.676568e-01 8.708346e-02 1.128890e+01 79 73 113
-3.072144e+00 7.654027e-02 1.225981e+01 151 145 129
-1.220742e+00 9.907511e-02 1.142482e+01 160 159 155
-2.198680e-01 1.811682e-01 1.085534e+01 165 165 170
-5.838204e-01 2.012929e-01 1.091399e+01 164 162 165
-5.842357e-01 2.013505e-01 1.091388e+01 164 162 165
-4.075003e-01 2.172482e-01 1.077739e+01 162 161 162
-5.833875e-01 2.580940e-01 1.072584e+01 164 163 162
-1.743473e+00 2.235977e-01 1.113386e+01 171 169 172
-9.573686e-01 2.828678e-01 1.070936e+01 168 168 170
-1.167090e+00 5.396984e-01 1.000480e+01 81 91 100
-2.958068e+00 4.386247e-01 1.083524e+01 31 32 26
-2.886818e+00 5.033902e-01 1.090769e+01 93 80 59
-2.663122e+00 1.554712e+00 1.133032e+01 107 93 72
-2.592560e+00 1.890888e+00 1.147702e+01 17 18 13
-2.528464e+00 2.044641e+00 1.150128e+01 93 78 57
-2.094082e+00 2.206607e-02 1.203348e+01 155 151 140
-2.288201e+00 4.478035e-02 1.204643e+01 156 149 143
-1.023443e+00 7.190647e-02 1.146913e+01 161 161 159
-3.054939e+00 4.323999e-02 1.230645e+01 18 16 17
-1.801727e+00 1.033328e-01 1.173540e+01 161 158 151
-2.843509e-01 1.600980e-01 1.110459e+01 161 162 167
-2.901270e+00 1.056582e-01 1.214745e+01 155 148 130
-1.228784e+00 1.425987e-01 1.132996e+01 109 107 115
-1.677421e+00 1.334605e-01 1.151190e+01 91 93 106
-1.350252e+00 1.343212e-01 1.130588e+01 156 155 150
-1.135833e-01 1.850410e-01 1.081419e+01 166 167 172
-2.368115e-01 2.286439e-01 1.084543e+01 60 72 104
-2.368115e-01 2.286439e-01 1.084543e+01 60 72 104
-9.331283e-01 2.568508e-01 1.081574e+01 84 81 100
-1.554275e+00 2.694733e-01 1.089754e+01 60 58 55
-4.005700e-01 3.400253e-01 1.030846e+01 87 100 117
-4.005700e-01 3.400253e-01 1.030846e+01 87 100 117
-1.161286e+00 3.246088e-01 1.064182e+01 166 164 165
-1.161755e+00 3.288927e-01 1.064117e+01 166 164 165
-8.918272e-01 3.703016e-01 1.039875e+01 61 73 103
-1.297094e+00 3.588163e-01 1.057460e+01 163 161 159
-1.350592e+00 4.777850e-01 1.017509e+01 178 177 183
-2.595032e+00 7.562343e-01 1.106195e+01 58 50 37
-4.720721e+00 5.428722e-01 1.092582e+01 61 56 53
-4.925213e+00 6.141530e-01 1.087861e+01 110 104 96
-4.890208e+00 6.256549e-01 1.092548e+01 110 104 96
-2.565431e+00 1.027617e+00 1.118847e+01 42 35 27
-2.565431e+00 1.027617e+00 1.118847e+01 42 35 27
1.215226e-01 3.846701e-02 1.117444e+01 154 159 168
6.715919e-02 5.398750e-02 1.115058e+01 158 163 164
4.880430e-03 5.752632e-02 1.118178e+01 157 159 171
8.829951e-03 5.441500e-02 1.117282e+01 157 159 171
4.880430e-03 5.752632e-02 1.118178e+01 157 159 171
-1.913945e-02 7.611613e-02 1.114766e+01 161 164 171
-3.033437e+00 5.410456e-02 1.225197e+01 24 17 24
-3.033437e+00 5.410456e-02 1.225197e+01 24 17 24
-6.869402e-02 1.328127e-01 1.101041e+01 164 165 170
-1.142998e+00 9.484710e-02 1.141943e+01 157 157 152
-1.144285e+00 9.404955e-02 1.141767e+01 157 157 152
-2.849840e+00 8.633115e-02 1.218166e+01 147 145 126
8.811537e-02 1.397524e-01 1.087828e+01 162 165 169
-3.171755e-01 1.428013e-01 1.100925e+01 160 158 163
-3.361350e-01 1.625170e-01 1.106761e+01 160 158 163
-1.300904e+00 1.238041e-01 1.135471e+01 159 158 154
-1.400050e+00 1.451257e-01 1.129658e+01 156 155 150
-5.084492e-01 1.847861e-01 1.095391e+01 163 161 167
-3.022630e-01 2.312693e-01 1.073785e+01 161 162 163
-4.393139e-01 2.648951e-01 1.068831e+01 165 163 166
-4.393139e-01 2.648951e-01 1.068831e+01 165 163 166
-7.797557e-01 2.489213e-01 1.080975e+01 166 167 170
-8.750474e-01 2.695475e-01 1.076925e+01 167 167 167
-9.141225e-01 2.794454e-01 1.074131e+01 166 166 169
-1.626699e+00 2.431117e-01 1.086691e+01 180 183 183
-5.953068e-01 3.146460e-01 1.044440e+01 72 82 117
-6.089696e-01 3.319442e-01 1.050216e+01 72 82 117
-6.672630e-01 3.437668e-01 1.047331e+01 67 78 110
-7.984891e-01 3.383019e-01 1.053014e+01 70 81 112
-7.984891e-01 3.383019e-01 1.053014e+01 70 81 112
-1.134165e+00 3.074495e-01 1.054447e+01 162 160 161
-9.496137e-01 3.713296e-01 1.044006e+01 173 173 173
-3.654366e+00 2.817061e-01 1.180012e+01 83 80 62
-9.618186e-01 3.970622e-01 1.038000e+01 59 70 98
-1.022443e+00 4.110045e-01 1.035370e+01 59 72 104
-1.372951e+00 3.834708e-01 1.051430e+01 164 162 163
-1.205273e+00 4.664416e-01 1.022235e+01 51 60 85
-1.288950e+00 4.574164e-01 1.015224e+01 59 64 91
-1.639076e-01 5.660110e-01 9.613477e+00 73 85 110
-9.494107e-01 5.367144e-01 9.928572e+00 151 108 130
-4.096058e+00 3.884117e-01 1.148138e+01 152 153 139
-2.334348e+00 5.995226e-01 1.043772e+01 48 47 44
-2.338175e+00 6.032123e-01 1.042706e+01 48 47 44
-4.479643e+00 6.801087e-01 1.041593e+01 104 99 93
-4.344862e+00 7.517496e-01 1.018832e+01 158 150 135
-4.655999e+00 7.499776e-01 1.023314e+01 152 143 134
-4.317094e+00 9.692647e-01 9.389702e+00 170 171 165
-4.316321e+00 9.699228e-01 9.391642e+00 170 171 165
-4.444748e+00 1.021095e+00 9.187623e+00 157 152 138
-2.543996e+00 1.510641e+00 1.129402e+01 23 24 19
-2.558751e+00 1.509729e+00 1.122750e+01 23 24 19
-2.788483e+00 1.986171e+00 1.136529e+01 82 80 65
-2.255401e+00 -1.051627e-02 1.216074e+01 145 142 123
-2.076781e+00 7.362799e-03 1.207518e+01 48 38 51
-1.265805e+00 3.554278e-02 1.167778e+01 155 155 146
-8.297669e-01 7.252668e-02 1.154564e+01 157 156 152
-8.297669e-01 7.252668e-02 1.154564e+01 157 156 152
-8.027718e-01 8.125869e-02 1.154465e+01 56 57 73
-2.069470e+00 3.855354e-02 1.196666e+01 157 155 136
-2.067169e+00 5.186823e-02 1.199374e+01 157 155 136
-2.081838e+00 4.298631e-02 1.192198e+01 53 44 54
-2.124296e+00 5.896384e-02 1.195420e+01 35 30 36
-2.105490e+00 4.943391e-02 1.192115e+01 156 156 140
-1.397597e+00 6.638326e-02 1.162157e+01 158 157 154
-2.184769e+00 5.585226e-02 1.193547e+01 28 20 30
-1.145883e+00 7.115522e-02 1.148392e+01 159 158 152
-5.056480e-02 1.032551e-01 1.105667e+01 158 160 172
-2.161826e+00 6.845441e-02 1.189655e+01 24 20 24
-1.188826e+00 1.036664e-01 1.139919e+01 159 158 152
-1.163654e+00 1.287342e-01 1.136860e+01 156 157 152
-1.879914e+00 1.671047e-01 1.141531e+01 160 159 154
-1.523979e+00 1.735667e-01 1.121177e+01 158 155 150
-3.807353e-01 2.592165e-01 1.074009e+01 162 162 159
-3.807353e-01 2.592165e-01 1.074009e+01 162 162 159
-7.519112e-01 2.415567e-01 1.086291e+01 167 166 166
-8.133757e-01 2.512005e-01 1.081486e+01 169 167 171
-5.068554e-01 2.839160e-01 1.066984e+01 167 166 166
9.193320e-03 3.291782e-01 1.038108e+01 164 162 165
-6.092131e-01 3.105587e-01 1.057069e+01 173 171 178
-6.696805e-01 3.271491e-01 1.056065e+01 174 172 175
-9.040744e-01 3.513300e-01 1.050684e+01 172 174 172
-9.897562e-01 3.824998e-01 1.043510e+01 61 72 98
-1.180895e+00 3.830360e-01 1.047854e+01 168 168 169
-1.332873e+00 3.691168e-01 1.050967e+01 163 162 158
-1.427280e+00 3.888874e-01 1.050319e+01 165 161 159
-1.274226e+00 4.039699e-01 1.043340e+01 166 165 163
-1.120597e+00 4.167164e-01 1.036068e+01 58 69 94
-1.113836e+00 4.047133e-01 1.030802e+01 58 69 94
-1.186091e+00 4.258205e-01 1.034391e+01 55 64 94
-1.183984e+00 4.269405e-01 1.034075e+01 55 64 94
-1.344460e+00 4.202816e-01 1.039436e+01 169 169 168
-1.129319e+00 3.803284e-01 1.003822e+01 56 68 95
-1.151196e+00 4.416697e-01 1.027808e+01 56 68 95
-1.281963e+00 4.265096e-01 1.022783e+01 173 169 167
-1.281963e+00 4.265096e-01 1.022783e+01 173 169 167
-1.163642e+00 4.609411e-01 1.023561e+01 171 172 170
-1.258438e+00 4.383064e-01 1.017479e+01 172 168 169
-3.327971e-01 5.548691e-01 9.739147e+00 74 90 117
-5.967986e-01 5.557870e-01 9.793596e+00 77 94 122
-4.102554e+00 3.503558e-01 1.146390e+01 55 53 31
-4.102554e+00 3.503558e-01 1.146390e+01 55 53 31
-3.884778e+00 3.980570e-01 1.148474e+01 82 75 84
-2.957427e+00 6.600254e-01 1.091425e+01 34 34 31
-1.015891e+00 9.624071e-01 8.446567e+00 86 102 128
-4.143196e+00 7.369515e-01 1.010859e+01 108 104 102
-3.634588e+00 8.839999e-01 9.276713e+00 116 128 152
-3.634588e+00 8.839999e-01 9.276713e+00 116 128 152
-3.940457e+00 1.118244e+00 8.576104e+00 189 192 199
-4.065988e+00 1.128376e+00 8.582452e+00 127 132 150
-3.969618e+00 1.153165e+00 8.425039e+00 127 142 163
-2.546444e+00 1.555460e+00 1.130569e+01 20 21 17
-2.131580e+00 2.192467e+00 1.054198e+01 25 26 21
-2.724003e+00 1.999900e+00 1.141524e+01 17 17 15
-2.511287e+00 2.021588e+00 1.144135e+01 19 21 16
-2.508907e+00 2.019617e+00 1.146199e+01 19 21 16
-2.749735e+00 2.005846e+00 1.140222e+01 17 19 17
1.103622e-01 1.656852e-02 1.124049e+01 84 85 114
1.360940e-01 2.870283e-02 1.118770e+01 85 90 121
-2.101611e+00 3.909326e-03 1.207807e+01 147 150 127
-2.265801e+00 6.944900e-04 1.213665e+01 33 27 35
-3.411912e-01 8.885668e-02 1.141899e+01 154 154 162
-1.546600e+00 5.013841e-02 1.184285e+01 150 151 137
-3.142368e-01 9.162506e-02 1.139751e+01 71 74 105
-3.142368e-01 9.162506e-02 1.139751e+01 71 74 105
-1.591634e-02 5.725251e-02 1.116992e+01 85 86 115
-1.242037e+00 4.979549e-02 1.165421e+01 161 162 156
-1.241267e+00 4.590574e-02 1.165108e+01 161 162 156
-1.265741e+00 5.076204e-02 1.165773e+01 47 42 63
-1.269863e+00 6.383178e-02 1.168586e+01 47 42 63
1.156803e-01 6.981926e-02 1.109267e+01 83 88 125
1.156803e-01 6.981926e-02 1.109267e+01 83 88 125
-1.623261e+00 6.554313e-02 1.182632e+01 153 153 133
-8.317366e-01 8.215302e-02 1.151025e+01 54 53 85
-1.059220e+00 5.911156e-02 1.153189e+01 52 49 76
-2.688189e+00 4.207853e-02 1.221299e+01 34 26 41
-4.232512e-01 7.541342e-02 1.126414e+01 60 61 82
-4.381779e-01 8.635837e-02 1.129943e+01 60 61 82
-4.232512e-01 7.541342e-02 1.126414e+01 60 61 82
-1.366550e+00 7.605431e-02 1.167373e+01 157 155 147
-3.056378e+00 4.258504e-02 1.233031e+01 24 20 20
-1.134944e+00 7.920553e-02 1.153436e+01 57 55 72
-3.050720e+00 1.326374e-02 1.223788e+01 146 142 118
-1.836779e-01 9.150987e-02 1.113557e+01 157 161 163
-1.681500e+00 7.921026e-02 1.176945e+01 157 155 140
-1.435513e+00 7.497782e-02 1.160746e+01 155 157 147
-3.080557e+00 5.436909e-02 1.229142e+01 32 25 34
-6.366989e-02 1.127313e-01 1.103443e+01 79 85 121
-1.780253e+00 7.656795e-02 1.172169e+01 34 29 41
-5.365989e-01 1.348165e-01 1.129399e+01 55 59 77
-1.184591e+00 9.146478e-02 1.143815e+01 51 49 74
-2.897265e+00 5.516709e-02 1.214000e+01 44 34 38
-2.669652e+00 8.754203e-02 1.200896e+01 158 154 144
-1.190799e+00 1.183531e-01 1.134746e+01 46 48 64
-6.825227e-01 1.425033e-01 1.114516e+01 52 57 78
-1.646755e+00 1.083586e-01 1.149989e+01 160 160 152
-4.326971e-01 1.601595e-01 1.101954e+01 54 56 86
-2.979031e+00 9.119990e-02 1.198998e+01 52 39 63
-2.954040e+00 1.217576e-01 1.205821e+01 52 39 63
3.672650e-01 2.019810e-01 1.060118e+01 160 165 170
-4.983859e-01 2.051520e-01 1.087951e+01 162 162 160
-1.505415e+00 1.687577e-01 1.124193e+01 154 154 144
-7.332378e-01 2.133696e-01 1.091431e+01 165 164 166
-7.331874e-01 2.126999e-01 1.090800e+01 165 164 166
-2.986858e-01 2.446061e-01 1.075864e+01 162 162 164
-1.507798e+00 1.924740e-01 1.117854e+01 153 151 146
-1.475892e+00 1.969586e-01 1.115882e+01 35 37 51
-1.080267e+00 2.160319e-01 1.099375e+01 154 156 146
-1.177750e+00 2.278378e-01 1.095775e+01 42 43 67
-7.877648e-01 2.701686e-01 1.073545e+01 165 164 169
-1.094760e+00 2.959568e-01 1.073816e+01 163 160 167
-1.132606e+00 3.276193e-01 1.064290e+01 169 167 171
-7.315694e-01 3.512710e-01 1.046958e+01 173 175 173
-7.257356e-01 3.445024e-01 1.044461e+01 173 175 173
-7.289683e-01 3.486951e-01 1.046003e+01 173 175 173
-1.156690e+00 3.362063e-01 1.048582e+01 165 165 165
-8.046273e-01 4.912936e-01 1.003927e+01 66 94 133
-5.875755e-01 5.106961e-01 9.920244e+00 80 98 118
-1.031232e+00 4.931611e-01 1.010319e+01 92 106 127
-6.384461e-01 5.409442e-01 9.843577e+00 165 167 173
-1.108991e+00 5.203578e-01 1.003053e+01 177 173 173
-4.035251e+00 3.495902e-01 1.144424e+01 155 153 142
-3.975986e+00 3.944814e-01 1.150634e+01 158 150 143
-4.049306e+00 3.654155e-01 1.143790e+01 38 31 36
-2.864328e+00 4.704913e-01 1.090887e+01 96 86 59
-2.536680e+00 4.932519e-01 1.073801e+01 26 26 23
-2.539500e+00 4.889240e-01 1.072115e+01 26 26 23
4.294079e-01 9.163244e-01 8.476737e+00 169 169 169
-4.135381e+00 5.712941e-01 1.093806e+01 165 163 149
-2.598328e+00 8.199169e-01 1.105218e+01 62 51 40
-2.598328e+00 8.199169e-01 1.105218e+01 62 51 40
2.824988e-01 9.272598e-01 8.378985e+00 111 118 111
-1.653119e+00 7.947941e-01 9.251116e+00 160 167 176
5.991043e-01 1.162021e+00 7.697557e+00 94 80 74
-4.075474e+00 7.131342e-01 1.027709e+01 111 111 105
4.894327e-01 1.155291e+00 7.677985e+00 159 156 153
-4.101562e+00 7.109642e-01 1.016627e+01 162 157 140
4.364550e-01 1.167586e+00 7.642006e+00 159 155 155
-4.097221e+00 7.288525e-01 1.012640e+01 116 111 109
4.813871e-01 1.187954e+00 7.637730e+00 90 75 72
-4.471406e+00 7.250929e-01 1.048807e+01 71 67 64
-4.536336e+00 7.042341e-01 1.036714e+01 71 67 64
-4.208761e+00 7.502383e-01 1.015284e+01 161 155 139
2.711297e-01 1.210070e+00 7.515972e+00 177 176 182
-4.271448e+00 7.561611e-01 1.008932e+01 160 152 136
-4.259417e+00 7.567280e-01 1.011223e+01 160 152 136
-4.334871e+00 7.496875e-01 1.015825e+01 157 151 136
-2.677651e+00 1.066946e+00 1.117501e+01 105 93 70
-4.309451e+00 7.650667e-01 1.007578e+01 155 152 133
-4.391660e+00 7.911977e-01 1.013388e+01 93 93 91
-4.405095e+00 8.053898e-01 1.006592e+01 156 150 136
-4.494858e+00 7.983642e-01 1.002206e+01 124 121 117
-3.689718e+00 9.036352e-01 9.280882e+00 121 135 163
-4.482995e+00 8.401832e-01 9.904211e+00 156 146 133
-1.480829e+00 1.179608e+00 7.844878e+00 141 154 174
-1.480829e+00 1.179608e+00 7.844878e+00 141 154 174
-5.505448e+00 8.727091e-01 1.034469e+01 146 136 124
-3.858677e+00 1.096411e+00 8.589773e+00 193 194 199
-3.858677e+00 1.096411e+00 8.589773e+00 193 194 199
-2.678653e+00 1.303121e+00 1.125633e+01 53 45 34
-2.676887e+00 1.341428e+00 1.127059e+01 41 32 24
-5.041708e+00 1.089096e+00 9.370562e+00 66 70 45
-2.840333e+00 1.391781e+00 1.116687e+01 96 81 60
-2.841684e+00 1.391839e+00 1.116190e+01 96 81 60
-2.566341e+00 1.434872e+00 1.122469e+01 59 47 35
-4.948717e+00 1.236439e+00 8.811944e+00 156 155 141
-4.847267e+00 1.315356e+00 8.323757e+00 139 124 93
-2.630965e+00 1.582852e+00 1.136467e+01 103 90 64
-5.990820e+00 1.363809e+00 8.430887e+00 100 89 67
-2.523796e+00 1.741057e+00 1.126631e+01 51 49 36
-2.399519e+00 1.845914e+00 1.096977e+01 51 48 39
-2.330753e+00 1.947801e+00 1.096932e+01 65 65 57
-2.888091e+00 1.897336e+00 1.125664e+01 117 110 95
-1.191304e+00 1.347145e-02 1.175154e+01 152 152 133
8.172502e-02 2.196818e-02 1.123237e+01 81 83 114
-1.160074e+00 3.851980e-02 1.176455e+01 51 48 66
-2.254939e+00 6.866070e-03 1.210857e+01 58 45 72
-3.147143e-01 5.678900e-02 1.137944e+01 65 66 97
-1.266742e+00 5.577543e-02 1.177263e+01 47 42 67
-2.004105e+00 3.521193e-02 1.203995e+01 138 143 106
2.769288e-02 5.006650e-02 1.118270e+01 87 90 124
2.769288e-02 5.006650e-02 1.118270e+01 87 90 124
-1.241004e+00 3.671232e-02 1.166737e+01 54 50 76
-1.240273e+00 3.665765e-02 1.166749e+01 54 50 76
-2.003352e+00 3.299288e-02 1.196874e+01 63 51 85
-1.328690e+00 6.351950e-02 1.173821e+01 40 37 45
-2.439570e+00 2.500612e-02 1.212745e+01 72 59 88
-2.215640e+00 3.313136e-02 1.201105e+01 62 49 74
-2.211928e+00 4.669069e-02 1.203891e+01 62 49 74
-3.881155e-01 9.868504e-02 1.135142e+01 153 157 160
-3.710382e-01 7.922307e-02 1.130048e+01 153 157 160
8.922913e-02 7.819827e-02 1.107323e+01 86 92 121
-4.818615e-01 7.660975e-02 1.132237e+01 60 59 94
-4.818615e-01 7.660975e-02 1.132237e+01 60 59 94
-5.068012e-01 1.084772e-01 1.136386e+01 150 152 147
-9.107284e-01 8.977618e-02 1.147605e+01 60 59 100
-9.049962e-01 7.591431e-02 1.143793e+01 60 59 100
-4.519764e-01 9.206983e-02 1.126689e+01 63 63 90
-2.260472e-01 1.031125e-01 1.117812e+01 78 81 124
-2.513225e-01 1.283031e-01 1.124837e+01 78 81 124
-3.073728e+00 4.420856e-02 1.230817e+01 122 128 87
-2.548914e+00 4.061694e-02 1.205783e+01 69 56 81
-3.078636e+00 2.266228e-02 1.222398e+01 135 135 111
-1.676713e+00 8.150055e-02 1.170393e+01 56 48 69
-1.675880e+00 7.279718e-02 1.168321e+01 56 48 69
-1.158894e+00 8.425291e-02 1.146567e+01 51 51 81
-1.156979e+00 8.547305e-02 1.147205e+01 51 51 81
-8.600751e-02 1.138730e-01 1.104193e+01 160 165 168
-5.403584e-01 1.168541e-01 1.124708e+01 154 156 152
-1.446717e+00 9.191494e-02 1.160499e+01 52 46 84
-2.603060e+00 8.213046e-02 1.208354e+01 67 54 79
-6.808828e-01 1.427580e-01 1.126159e+01 61 64 83
-3.346623e-01 1.314377e-01 1.106248e+01 66 71 105
-1.257688e+00 1.042143e-01 1.142057e+01 53 51 73
-1.320794e+00 1.201764e-01 1.148612e+01 54 50 79
-2.064774e-01 1.392640e-01 1.099163e+01 77 83 112
-6.484850e-01 1.313913e-01 1.117226e+01 60 59 86
-7.073531e-01 1.312471e-01 1.118838e+01 59 63 82
-1.634782e+00 1.008724e-01 1.152543e+01 50 47 69
-1.637616e+00 1.118412e-01 1.155370e+01 50 47 69
-7.126997e-01 1.367380e-01 1.116394e+01 161 160 153
-4.340773e-01 1.493064e-01 1.105392e+01 156 158 150
-2.541691e-01 1.497913e-01 1.096491e+01 156 159 157
-1.664635e+00 1.251277e-01 1.156275e+01 43 39 55
-1.663608e+00 1.127341e-01 1.153440e+01 43 39 55
-1.913345e+00 1.174036e-01 1.165446e+01 160 160 150
-1.172252e+00 1.276506e-01 1.130930e+01 53 46 89
-5.014746e-01 1.692319e-01 1.108961e+01 55 58 88
-1.900915e+00 1.115533e-01 1.160241e+01 163 161 153
-3.155736e-01 1.790109e-01 1.100981e+01 64 69 96
-7.872651e-01 1.611721e-01 1.117539e+01 154 157 143
-4.779676e-01 1.714556e-01 1.103729e+01 64 64 92
-4.779676e-01 1.714556e-01 1.103729e+01 64 64 92
-2.946857e+00 1.097583e-01 1.207106e+01 135 137 91
-5.188185e-01 1.592428e-01 1.101061e+01 56 60 84
-5.416835e-01 1.804561e-01 1.108102e+01 56 60 84
-1.686075e+00 1.241135e-01 1.148724e+01 50 51 81
-1.973243e+00 1.335264e-01 1.163547e+01 160 160 142
-2.004532e+00 1.216886e-01 1.162468e+01 50 43 63
-1.256501e+00 1.381708e-01 1.129489e+01 155 155 143
-5.389169e-01 1.727320e-01 1.102178e+01 158 159 152
-1.769510e+00 1.357732e-01 1.149230e+01 49 50 68
-8.337223e-01 1.666275e-01 1.109646e+01 160 165 153
-4.091775e-01 1.955207e-01 1.095742e+01 153 160 145
-4.127539e-01 1.784804e-01 1.091625e+01 57 55 88
-1.506156e+00 1.387933e-01 1.134951e+01 52 47 73
-2.024066e+00 1.435616e-01 1.157284e+01 57 47 76
-2.024066e+00 1.435616e-01 1.157284e+01 57 47 76
-1.780530e+00 1.511391e-01 1.143873e+01 50 47 63
-1.375288e+00 1.696909e-01 1.121823e+01 42 39 60
-1.375478e+00 1.690714e-01 1.121597e+01 42 39 60
-5.271100e-01 2.066121e-01 1.088681e+01 65 65 96
-5.130706e-01 2.186046e-01 1.085944e+01 63 64 108
2.367950e-01 2.516901e-01 1.052321e+01 102 110 127
-1.503087e+00 1.816417e-01 1.121284e+01 39 35 43
-1.503016e+00 1.802227e-01 1.121151e+01 39 35 43
-1.887799e+00 1.811313e-01 1.139260e+01 48 48 70
-7.457310e-01 2.263173e-01 1.089221e+01 64 72 110
-1.678816e+00 1.885823e-01 1.128043e+01 150 151 142
-1.695601e+00 1.852240e-01 1.126291e+01 39 37 45
8.451713e-02 2.752292e-01 1.055171e+01 162 165 169
-1.132357e+00 2.211215e-01 1.099861e+01 64 61 91
-6.222197e-01 2.483057e-01 1.075890e+01 69 72 104
-1.742397e+00 2.059119e-01 1.120979e+01 46 44 62
-2.756729e-02 3.064482e-01 1.050732e+01 164 163 171
-1.804592e+00 2.133863e-01 1.117771e+01 162 162 163
-1.230859e+00 2.498986e-01 1.093788e+01 153 154 142
-1.646714e+00 2.198647e-01 1.106641e+01 44 42 44
-1.509521e+00 2.556932e-01 1.094485e+01 35 32 49
-8.662072e-01 2.971219e-01 1.068122e+01 65 69 95
-1.129374e+00 2.963569e-01 1.069190e+01 163 162 161
-1.134190e+00 3.030965e-01 1.072016e+01 163 162 161
-1.096308e+00 2.996383e-01 1.067816e+01 69 75 105
-1.109657e+00 3.153312e-01 1.067486e+01 164 165 170
-1.139096e+00 3.435859e-01 1.059238e+01 163 162 159
-1.406702e+00 3.527982e-01 1.054463e+01 161 158 155
-1.347796e+00 3.915464e-01 1.049427e+01 53 57 81
-1.382396e+00 4.615064e-01 1.029636e+01 181 177 182
-8.857280e-01 5.077761e-01 1.000390e+01 87 102 131
-9.566697e-01 5.063831e-01 1.003631e+01 91 103 124
-4.991908e-01 5.216438e-01 9.746305e+00 173 170 176
-1.090324e+00 5.006266e-01 1.007602e+01 91 103 123
-1.039704e+00 5.314973e-01 9.971875e+00 86 97 117
-4.864742e-01 5.793561e-01 9.705349e+00 148 146 154
-1.055619e+00 5.465897e-01 9.929548e+00 167 163 167
-2.841105e+00 4.761311e-01 1.091358e+01 30 27 21
-4.057441e+00 3.874931e-01 1.132023e+01 98 85 102
-2.297117e+00 6.299991e-01 1.033472e+01 38 35 42
-2.299780e+00 6.247308e-01 1.030902e+01 38 35 42
3.330533e-01 9.614530e-01 8.370782e+00 82 120 126
-2.490982e+00 8.631773e-01 1.083928e+01 75 61 51
-2.587871e+00 9.433838e-01 1.105414e+01 59 51 40
-2.587753e+00 9.433847e-01 1.105468e+01 59 51 40
-4.843110e+00 6.005927e-01 1.091593e+01 148 146 133
-3.913197e+00 6.852304e-01 1.020424e+01 98 96 94
-3.913197e+00 6.852304e-01 1.020424e+01 98 96 94
5.301265e-01 1.169244e+00 7.668573e+00 91 78 67
-4.112804e+00 7.242052e-01 1.027015e+01 95 91 90
-2.397136e+00 1.027587e+00 1.068484e+01 67 54 40
-2.388476e+00 1.034952e+00 1.074020e+01 67 54 40
-4.255505e+00 7.385638e-01 1.014990e+01 121 117 117
-4.757533e+00 7.122668e-01 1.057998e+01 149 150 126
-4.168484e+00 7.674690e-01 1.006585e+01 158 152 139
-4.203402e+00 7.805738e-01 1.006315e+01 162 154 137
-4.369509e+00 7.716051e-01 1.010178e+01 108 104 105
-4.369509e+00 7.716051e-01 1.010178e+01 108 104 105
-2.505965e+00 1.116816e+00 1.096327e+01 62 49 32
-2.499932e+00 1.120233e+00 1.099772e+01 62 49 32
-3.865567e+00 8.735810e-01 9.452937e+00 128 141 166
-4.164409e+00 8.898766e-01 9.569241e+00 172 172 159
-3.987152e+00 9.172876e-01 9.384515e+00 182 182 183
-4.026238e+00 9.188421e-01 9.417038e+00 108 117 133
-4.058551e+00 9.355292e-01 9.413670e+00 102 103 107
-4.151560e+00 9.384536e-01 9.432386e+00 172 171 160
-4.298108e+00 9.240068e-01 9.514907e+00 167 165 153
-4.210459e+00 9.513798e-01 9.391798e+00 172 172 165
-5.298268e+00 1.008606e+00 9.819492e+00 84 69 58
-4.061987e+00 1.174161e+00 8.411170e+00 142 148 168
-4.088319e+00 1.211786e+00 8.607587e+00 148 159 180
-1.445801e+00 1.640803e+00 6.181582e+00 127 131 141
-2.641209e+00 1.419968e+00 1.131938e+01 100 91 72
-5.738984e+00 1.054933e+00 9.803209e+00 96 94 30
-5.707013e+00 1.063410e+00 9.798283e+00 91 87 25
-4.846783e+00 1.211580e+00 8.716338e+00 69 77 45
-4.846783e+00 1.211580e+00 8.716338e+00 69 77 45
-5.508685e+00 1.175724e+00 9.311481e+00 100 106 32
-2.774790e+00 1.581385e+00 1.125565e+01 65 56 47
-2.639383e+00 1.602315e+00 1.136354e+01 23 21 23
-2.249242e+00 1.736289e+00 1.055958e+01 69 63 50
-2.229401e+00 1.732295e+00 1.073099e+01 69 63 50
-2.182002e+00 1.756714e+00 1.061982e+01 71 65 51
-2.199335e+00 1.759962e+00 1.047277e+01 71 65 51
-2.402678e+00 1.710935e+00 1.110918e+01 55 53 40
-2.454203e+00 1.729782e+00 1.116868e+01 50 47 36
-2.843582e+00 1.686590e+00 1.124627e+01 106 90 73
-2.359866e+00 1.818331e+00 1.093586e+01 55 51 39
-2.340486e+00 1.906365e+00 1.092414e+01 46 46 37
-2.326897e+00 1.898895e+00 1.101978e+01 46 46 37
-2.522913e+00 1.847885e+00 1.134140e+01 59 55 46
-2.522913e+00 1.847885e+00 1.134140e+01 59 55 46
-2.388857e+00 1.906842e+00 1.115306e+01 55 52 40
-2.388857e+00 1.906842e+00 1.115306e+01 55 52 40
-2.515021e+00 1.886439e+00 1.136021e+01 45 42 33
-2.506681e+00 1.882654e+00 1.139750e+01 45 42 33
-2.813439e+00 1.894674e+00 1.132573e+01 61 55 43
-2.221595e+00 2.046716e+00 1.073494e+01 54 50 39
-2.214730e+00 2.040215e+00 1.080072e+01 54 50 39
-2.186708e+00 2.057519e+00 1.073354e+01 57 55 43
-2.365593e+00 2.032577e+00 1.113786e+01 48 48 40
-2.377104e+00 2.040892e+00 1.106405e+01 48 48 40
-2.275274e+00 2.091190e+00 1.087789e+01 49 46 35
-2.275274e+00 2.091190e+00 1.087789e+01 49 46 35
-2.471359e+00 2.129032e+00 1.131045e+01 28 29 24
-1.200501e+00 3.829416e-02 1.178872e+01 64 57 102
-1.200501e+00 3.829416e-02 1.178872e+01 64 57 102
-1.170508e+00 2.383445e-02 1.169082e+01 59 50 68
-1.180873e+00 4.526015e-02 1.174591e+01 59 50 68
-2.291851e+00 1.160288e-02 1.209538e+01 59 48 65
-2.291321e+00 1.352439e-02 1.209839e+01 59 48 65
-3.706945e-01 9.162537e-02 1.144706e+01 81 80 113
-3.706945e-01 9.162537e-02 1.144706e+01 81 80 113
-1.007270e+00 6.072811e-02 1.164693e+01 80 73 105
-2.303086e+00 1.862652e-02 1.210851e+01 136 137 126
-4.136803e-01 1.012880e-01 1.140800e+01 147 149 146
-3.702827e-01 6.032729e-02 1.128955e+01 147 149 146
-2.637705e+00 4.371900e-02 1.223134e+01 150 144 133
-2.247567e+00 3.466991e-02 1.202391e+01 144 143 125
-4.078785e-01 1.011011e-01 1.136609e+01 67 69 91
-1.660026e+00 6.842140e-02 1.173897e+01 73 63 98
-2.809613e-01 1.219983e-01 1.114269e+01 154 156 145
-1.537514e+00 9.784101e-02 1.161478e+01 41 39 48
-1.637297e-01 1.311213e-01 1.106372e+01 88 91 124
-3.107058e+00 7.260772e-02 1.225889e+01 147 144 132
-1.129300e+00 1.167322e-01 1.141825e+01 70 66 88
-1.788757e-01 1.345726e-01 1.101127e+01 159 164 177
-6.753463e-01 1.296515e-01 1.114869e+01 148 155 129
-1.911465e+00 1.056183e-01 1.166989e+01 47 44 59
-1.911124e+00 1.060346e-01 1.167456e+01 47 44 59
-1.634822e+00 1.027574e-01 1.152588e+01 50 47 69
