ply
format ascii 1.0
element face 0
property list uchar int vertex_indices
element vertex 940
property float x
property float y
property float z
property uchar diffuse_red
property uchar diffuse_green
property uchar diffuse_blue
end_header
-3.349698e+00 -5.087933e-01 1.378428e+01 182 181 189
-5.105614e-01 -4.754420e-01 1.293756e+01 132 143 134
-5.105614e-01 -4.754420e-01 1.293756e+01 132 143 134
-2.698781e+00 1.669828e+00 1.057823e+01 47 76 120
-3.969882e+00 9.730260e-01 9.173144e+00 169 173 172
-3.799191e+00 9.402030e-01 9.235631e+00 32 25 41
-4.037867e+00 8.925032e-01 9.450350e+00 57 57 70
-3.993407e+00 8.892122e-01 9.469122e+00 87 92 91
-3.911805e+00 8.838253e-01 9.462654e+00 176 185 184
-3.413713e+00 8.480579e-01 9.405341e+00 30 25 41
-3.679870e+00 8.539452e-01 9.479771e+00 184 184 184
-1.657749e+00 7.936335e-01 9.125881e+00 163 166 160
-1.343035e+00 6.688584e-01 9.445487e+00 80 81 85
-7.987825e-01 6.773051e-01 9.262006e+00 88 92 78
-7.047835e-01 6.478957e-01 9.342462e+00 99 101 91
-2.634380e+00 6.927030e-01 1.001842e+01 74 60 57
-2.591544e+00 8.002894e-01 9.994443e+00 153 132 111
-5.012159e-01 5.810464e-01 9.537531e+00 125 130 89
-2.523469e+00 9.451833e-01 9.936902e+00 114 70 61
-6.856158e-01 5.192708e-01 9.776450e+00 54 52 50
-5.339346e+00 3.459792e-01 1.168644e+01 45 49 35
-2.647037e+00 9.353755e-01 1.015063e+01 154 140 113
-2.629067e+00 1.005771e+00 1.014928e+01 150 139 117
-2.608199e+00 1.050807e+00 1.011080e+01 86 63 49
-9.787384e-01 3.806444e-01 1.025435e+01 36 35 43
-2.563457e+00 1.111416e+00 1.008531e+01 155 141 128
-2.620166e+00 1.097453e+00 1.016008e+01 62 57 51
-2.481830e+00 1.219116e+00 9.987984e+00 160 141 116
-2.580945e+00 1.160981e+00 1.012969e+01 99 61 52
-2.786439e+00 9.606796e-01 1.043483e+01 171 164 148
-2.761280e+00 9.955165e-01 1.040317e+01 116 79 63
-1.519460e-02 2.875969e-01 1.038054e+01 171 170 175
-1.411863e+00 1.557737e-01 1.112060e+01 180 181 185
-2.539324e+00 1.367524e+00 1.011702e+01 161 140 104
-2.601118e+00 1.330313e+00 1.020568e+01 120 121 72
-1.093169e-01 2.118386e-01 1.066400e+01 46 42 49
-4.525406e+00 -8.155159e-02 1.272112e+01 145 139 122
-2.489058e+00 1.439678e+00 1.008425e+01 152 56 40
-1.136673e+00 6.935800e-02 1.133752e+01 126 128 135
-3.367005e+00 -1.395972e-01 1.255109e+01 186 188 189
-1.469818e+00 1.092202e-02 1.164830e+01 154 157 163
-2.459309e+00 1.519801e+00 1.007179e+01 138 111 61
-3.709081e+00 -1.731933e-01 1.278817e+01 188 188 191
-2.515485e+00 1.482104e+00 1.015564e+01 90 74 59
1.297339e-02 3.905970e-02 1.109590e+01 179 182 181
-3.265845e+00 -2.087901e-01 1.278394e+01 186 187 189
-3.223827e+00 -2.341962e-01 1.282506e+01 187 186 190
3.204460e-01 8.361422e-05 1.115821e+01 136 129 131
3.204460e-01 8.361422e-05 1.115821e+01 136 129 131
-1.097523e+00 -5.831102e-02 1.180840e+01 119 119 120
-1.387287e+00 -1.465000e-01 1.208945e+01 92 92 91
-7.287181e-01 -9.564067e-02 1.176562e+01 135 133 134
-7.287181e-01 -9.564067e-02 1.176562e+01 135 133 134
8.765656e-03 -1.591756e-01 1.173413e+01 124 117 108
-5.765965e-01 -1.949496e-01 1.203828e+01 144 140 140
-5.765965e-01 -1.949496e-01 1.203828e+01 144 140 140
-1.057100e+00 -3.402811e-01 1.261071e+01 93 101 50
-1.057100e+00 -3.402811e-01 1.261071e+01 93 101 50
-2.712686e+00 1.601355e+00 1.059936e+01 44 73 124
-2.190184e+00 1.953983e+00 1.033819e+01 46 61 94
-4.001973e+00 9.751819e-01 9.159459e+00 163 172 152
-2.318227e+00 9.542110e-01 8.767149e+00 49 42 67
-3.872012e+00 9.459952e-01 9.227601e+00 42 35 56
-2.211234e+00 9.381823e-01 8.784141e+00 45 32 51
-3.722758e+00 9.176664e-01 9.256674e+00 165 169 154
-2.177046e+00 9.339365e-01 8.822495e+00 172 174 165
-3.563107e+00 8.821695e-01 9.337125e+00 25 23 31
-3.546980e+00 8.674988e-01 9.376928e+00 34 31 54
-3.472511e+00 8.623651e-01 9.376915e+00 30 28 38
-4.032213e+00 8.764855e-01 9.545277e+00 176 179 180
-3.486761e+00 8.532418e-01 9.404368e+00 33 28 52
-3.444615e+00 8.531370e-01 9.390661e+00 28 24 38
-3.433982e+00 8.486664e-01 9.409057e+00 179 186 178
-3.425298e+00 8.404759e-01 9.430449e+00 33 31 54
-1.639127e+00 7.985767e-01 9.072367e+00 116 119 102
-4.350159e+00 7.847374e-01 9.959478e+00 97 104 103
-2.519039e+00 7.199835e-01 9.826804e+00 148 109 74
-8.780534e-01 6.509963e-01 9.385420e+00 119 122 105
-9.512214e-01 6.236125e-01 9.502581e+00 90 96 80
-2.605328e+00 8.076620e-01 1.001548e+01 110 81 60
-2.701133e+00 7.175714e-01 1.015412e+01 158 142 116
-1.007144e+00 5.609634e-01 9.736596e+00 88 100 88
-2.809415e+00 6.387396e-01 1.035372e+01 89 75 67
-5.839792e-01 5.355381e-01 9.723023e+00 42 50 69
-3.957794e-01 5.126188e-01 9.710603e+00 144 144 133
-2.651622e+00 8.841812e-01 1.013357e+01 89 67 53
-2.682150e+00 8.647285e-01 1.020023e+01 117 65 55
-2.536163e+00 1.037439e+00 1.000379e+01 157 145 131
-1.329380e+00 3.847762e-01 1.033948e+01 155 161 165
-2.484842e+00 1.160212e+00 9.961646e+00 153 140 121
-2.850766e+00 8.001186e-01 1.051288e+01 97 76 70
-2.554687e+00 1.226936e+00 1.009032e+01 123 91 56
-2.699031e+00 1.105914e+00 1.033586e+01 99 62 52
-2.761151e+00 1.065194e+00 1.041483e+01 166 157 139
-2.738993e+00 1.081102e+00 1.039598e+01 78 81 66
-2.717262e+00 1.115418e+00 1.036179e+01 154 145 129
-2.364807e+00 1.298625e+00 1.005150e+01 25 26 20
-1.106259e+00 9.519011e-02 1.119583e+01 187 190 198
-3.502905e+00 -5.804610e-02 1.242366e+01 184 183 181
-2.803610e+00 1.228813e+00 1.061429e+01 40 39 39
-2.830031e+00 1.205756e+00 1.065469e+01 158 149 130
-2.696748e+00 1.354899e+00 1.043242e+01 156 146 120
-3.144332e+00 -2.014031e-01 1.269922e+01 186 184 187
-3.427844e+00 -2.435452e-01 1.292000e+01 186 185 190
-3.888992e+00 -2.462078e-01 1.312147e+01 107 110 99
-2.746651e+00 1.342378e+00 1.051983e+01 124 127 75
-3.375562e+00 -2.555212e-01 1.294443e+01 184 185 189
-1.319593e+00 -1.624218e-01 1.215100e+01 182 182 182
-3.548716e+00 -3.257634e-01 1.328099e+01 41 60 54
-1.399703e+00 -1.889752e-01 1.222441e+01 102 104 104
-2.844661e+00 1.324674e+00 1.075261e+01 85 90 69
-2.844661e+00 1.324674e+00 1.075261e+01 85 90 69
-1.067152e+00 -2.521770e-01 1.234242e+01 142 141 140
-4.696284e+00 -4.484282e-01 1.413285e+01 45 87 112
-9.259101e-01 -2.761580e-01 1.234510e+01 182 183 183
-2.766938e+00 1.438235e+00 1.061762e+01 115 119 85
-3.362377e+00 -3.906955e-01 1.353554e+01 66 73 63
-1.310404e+00 -3.359226e-01 1.263217e+01 178 178 180
-9.348241e-01 -4.759608e-01 1.302564e+01 116 66 34
-2.492348e+00 2.089256e+00 1.034378e+01 164 166 159
-2.550004e+00 2.157099e+00 1.053233e+01 94 55 43
-4.037431e+00 9.365821e-01 9.346055e+00 36 33 44
-4.029138e+00 9.195627e-01 9.376407e+00 44 41 59
-2.166211e+00 9.260081e-01 8.847411e+00 65 51 91
-3.966208e+00 9.020989e-01 9.382347e+00 163 170 145
-3.835161e+00 8.858135e-01 9.437429e+00 42 40 49
-1.412420e+00 8.652392e-01 8.763910e+00 71 64 71
-3.714235e+00 8.510282e-01 9.505931e+00 175 179 168
-1.746685e+00 7.940058e-01 9.123399e+00 70 71 59
-4.276803e+00 7.708278e-01 9.982965e+00 175 174 165
-4.812214e+00 6.832999e-01 1.050939e+01 34 38 57
-2.686344e+00 6.563020e-01 1.011966e+01 101 72 62
-2.534687e+00 8.805107e-01 9.933325e+00 128 61 52
-2.604869e+00 9.390193e-01 1.006854e+01 148 133 128
-2.885675e+00 6.764005e-01 1.052523e+01 97 72 68
-4.871974e+00 2.916115e-01 1.170388e+01 125 123 91
-3.669127e+00 2.786571e-01 1.142946e+01 96 42 38
-3.671455e+00 2.750523e-01 1.142969e+01 96 42 38
-4.801921e+00 2.151857e-01 1.191206e+01 150 141 131
-2.824656e+00 8.868922e-01 1.047420e+01 113 85 65
-5.379702e+00 1.958864e-01 1.220711e+01 170 173 177
-2.670261e-01 2.414156e-01 1.058611e+01 48 46 54
-3.568794e-01 1.539613e-01 1.082790e+01 182 181 186
-4.641289e+00 -6.894832e-02 1.275737e+01 73 79 53
-3.422417e+00 -1.429173e-01 1.256271e+01 178 177 182
-3.911422e+00 -1.791873e-01 1.287125e+01 115 93 82
-3.266854e+00 -1.727884e-01 1.263364e+01 184 184 186
-3.266854e+00 -1.727884e-01 1.263364e+01 184 184 186
-2.343916e+00 1.495806e+00 1.011874e+01 27 29 24
-2.264024e-01 1.943233e-02 1.127632e+01 179 181 185
-1.550389e+00 -1.160901e-01 1.205809e+01 184 182 182
-2.192300e+00 1.464991e+00 1.019621e+01 26 25 25
-1.569527e+00 -1.769029e-01 1.222159e+01 179 178 176
-1.519726e+00 -1.765689e-01 1.222580e+01 178 178 180
-3.331861e+00 -3.301293e-01 1.318002e+01 175 176 185
-4.959803e+00 -3.499379e-01 1.389314e+01 90 102 81
-4.959803e+00 -3.499379e-01 1.389314e+01 90 102 81
-3.353558e+00 -2.903596e-01 1.318897e+01 88 93 87
-3.193376e+00 -3.575540e-01 1.323366e+01 48 67 59
-2.790176e+00 1.374063e+00 1.063899e+01 164 160 150
-3.881138e+00 -4.065788e-01 1.362453e+01 81 89 74
-3.272390e+00 -3.815369e-01 1.333829e+01 55 60 48
-1.137687e+00 -2.046758e-01 1.223287e+01 185 185 187
-2.683144e+00 1.481825e+00 1.046197e+01 54 57 41
-1.042904e+00 -2.354027e-01 1.228162e+01 182 183 185
1.078852e-01 -1.793798e-01 1.179012e+01 161 158 158
-3.282229e+00 -4.571867e-01 1.360947e+01 51 61 49
-2.253849e+00 1.619800e+00 1.019372e+01 30 31 28
-1.323076e+00 -3.749961e-01 1.282546e+01 181 178 180
-2.273700e+00 1.688912e+00 1.020621e+01 81 82 74
-2.206008e+00 1.819724e+00 1.028623e+01 31 32 26
-2.242577e+00 1.863217e+00 1.026239e+01 27 27 24
-2.263121e+00 1.909516e+00 1.027349e+01 108 103 97
-2.296605e+00 1.982795e+00 1.027549e+01 132 145 171
-2.608956e+00 2.008816e+00 1.057688e+01 164 164 163
-3.939705e+00 9.708106e-01 9.164987e+00 56 48 81
-3.648514e+00 9.049227e-01 9.293832e+00 53 58 90
-3.852868e+00 8.888257e-01 9.416320e+00 41 40 60
-1.455481e+00 8.934489e-01 8.763115e+00 71 67 106
-4.806410e+00 8.015811e-01 1.004957e+01 103 101 89
-4.241226e+00 7.489547e-01 1.003684e+01 170 170 168
-4.234112e+00 7.363726e-01 1.007440e+01 48 57 68
-4.256100e+00 7.307952e-01 1.009807e+01 172 172 163
-4.558761e+00 7.361766e-01 1.019471e+01 167 166 160
-3.845144e+00 6.781113e-01 1.011486e+01 175 176 164
-4.330809e+00 6.774706e-01 1.030884e+01 173 171 168
-9.182949e-01 6.842696e-01 9.257856e+00 91 93 87
-4.868330e+00 6.335204e-01 1.069969e+01 174 181 174
-4.631505e+00 5.673796e-01 1.079976e+01 176 176 165
-2.406198e+00 7.996288e-01 9.901331e+00 43 43 43
-9.496842e-01 5.984179e-01 9.602293e+00 33 32 35
-8.320489e-01 5.393541e-01 9.746654e+00 77 77 80
-8.370272e-01 5.482120e-01 9.740237e+00 77 77 80
-7.012177e-01 5.417379e-01 9.718623e+00 98 97 94
-3.976123e-01 5.351012e-01 9.637016e+00 126 38 33
-5.554065e-01 5.201536e-01 9.725372e+00 56 59 72
-2.584088e+00 9.441960e-01 1.003506e+01 157 144 121
-2.239476e+00 8.987025e-01 1.001142e+01 92 91 86
-2.609638e+00 1.010260e+00 1.011693e+01 159 150 131
-2.876408e+00 7.391212e-01 1.054765e+01 105 87 77
-1.303890e+00 3.427937e-01 1.046203e+01 168 171 164
-2.356693e+00 1.123004e+00 1.002316e+01 27 27 25
-2.356693e+00 1.123004e+00 1.002316e+01 27 27 25
-2.301014e+00 1.097968e+00 1.003490e+01 36 35 32
-2.301014e+00 1.097968e+00 1.003490e+01 36 35 32
-2.720741e+00 1.008793e+00 1.031316e+01 153 139 118
-5.303434e+00 1.621652e-01 1.226673e+01 56 60 81
-6.726965e-01 2.766691e-01 1.052384e+01 176 179 188
-3.058277e-01 2.680909e-01 1.051352e+01 54 53 84
-2.873538e-01 2.387679e-01 1.053859e+01 54 53 84
-2.633143e+00 1.250884e+00 1.023276e+01 119 61 50
-2.681231e+00 1.220319e+00 1.032034e+01 112 86 59
-8.236069e-01 1.656961e-01 1.095450e+01 185 185 185
-2.382499e-01 1.964813e-01 1.070578e+01 53 52 76
-2.382499e-01 1.964813e-01 1.070578e+01 53 52 76
-5.986831e+00 -1.017455e-01 1.336267e+01 58 66 89
-6.019762e+00 -1.035926e-01 1.339578e+01 165 166 165
-5.927806e+00 -1.420056e-01 1.346507e+01 171 173 172
-1.260970e+00 4.586259e-02 1.149620e+01 185 189 183
-5.521190e+00 -2.524848e-01 1.365108e+01 69 80 86
-2.192486e+00 1.413141e+00 1.017768e+01 33 34 29
-1.663937e+00 -7.981195e-02 1.198884e+01 176 176 174
-2.852967e+00 1.259855e+00 1.073754e+01 78 83 62
-4.972787e+00 -3.796980e-01 1.388129e+01 175 167 154
-2.866200e+00 1.254957e+00 1.079240e+01 174 174 172
-3.467428e+00 -3.011300e-01 1.331000e+01 105 106 103
-2.190279e+00 1.517678e+00 1.021405e+01 32 32 26
-2.789454e+00 1.380868e+00 1.065818e+01 99 100 77
-3.368654e+00 -3.738359e-01 1.346208e+01 176 177 167
-2.864577e+00 1.316172e+00 1.082020e+01 92 94 73
-3.270581e+00 -3.431235e-01 1.339834e+01 178 172 176
-1.349522e+00 -3.354698e-01 1.268185e+01 180 175 177
-2.318090e+00 1.786551e+00 1.020624e+01 85 80 74
-2.317626e+00 1.785504e+00 1.020899e+01 85 80 74
-2.627219e+00 1.762051e+00 1.046423e+01 161 144 133
-2.595212e+00 1.796616e+00 1.040811e+01 157 141 131
-2.211726e+00 1.799415e+00 1.027427e+01 29 30 22
-2.183240e+00 1.793719e+00 1.029029e+01 30 31 25
-2.183240e+00 1.793719e+00 1.029029e+01 30 31 25
-2.207817e+00 1.807362e+00 1.028090e+01 54 55 46
-2.553934e+00 2.015906e+00 1.047591e+01 34 31 32
-2.499692e+00 2.093895e+00 1.038591e+01 166 160 159
-2.696317e+00 1.970487e+00 1.075540e+01 31 33 32
-2.801849e+00 1.896866e+00 1.097531e+01 153 148 150
-3.152023e+00 9.823990e-01 8.909614e+00 147 148 122
-4.172594e+00 9.686424e-01 9.263707e+00 84 70 118
-4.126860e+00 9.354372e-01 9.316094e+00 65 57 92
-2.990311e+00 9.135516e-01 9.069090e+00 104 101 121
-4.077046e+00 8.943411e-01 9.444079e+00 66 63 88
-3.862181e+00 8.921158e-01 9.419059e+00 163 173 135
-3.862181e+00 8.921158e-01 9.419059e+00 163 173 135
-3.978252e+00 8.906883e-01 9.472662e+00 173 182 168
-3.933185e+00 8.713585e-01 9.501762e+00 50 56 74
-4.107081e+00 8.777818e-01 9.556089e+00 167 183 162
-3.993321e+00 8.485441e-01 9.610033e+00 171 179 170
-4.295749e+00 7.983289e-01 9.883474e+00 39 40 57
-4.295749e+00 7.983289e-01 9.883474e+00 39 40 57
-4.190704e+00 7.827986e-01 9.917804e+00 163 166 144
-4.136595e+00 7.539690e-01 9.981549e+00 53 52 86
-4.136595e+00 7.539690e-01 9.981549e+00 53 52 86
-4.582343e+00 7.433099e-01 1.017475e+01 47 47 65
-4.549036e+00 7.342136e-01 1.020800e+01 53 45 86
-3.940306e+00 7.048119e-01 1.006320e+01 161 172 150
-4.421933e+00 7.032003e-01 1.025895e+01 167 172 147
-4.418779e+00 6.983416e-01 1.027422e+01 49 53 66
-4.394695e+00 6.926181e-01 1.027081e+01 36 41 60
-1.290166e+00 7.119853e-01 9.305013e+00 106 120 46
-4.267057e+00 6.581515e-01 1.034842e+01 41 51 89
-4.179557e+00 6.341385e-01 1.039439e+01 55 60 85
-4.129110e+00 6.300671e-01 1.038136e+01 66 62 86
-8.138788e-01 6.523717e-01 9.367603e+00 83 52 64
-2.453888e+00 8.013161e-01 9.886260e+00 43 41 42
-4.544844e+00 5.468446e-01 1.086764e+01 178 186 177
-2.460950e+00 8.608686e-01 9.884528e+00 94 94 83
-5.275749e-01 5.897869e-01 9.499976e+00 86 88 85
-2.641467e+00 7.620371e-01 1.006450e+01 113 87 66
-4.851956e-01 5.669658e-01 9.566127e+00 44 45 46
-1.009515e+00 5.405561e-01 9.806343e+00 129 43 34
-4.154311e-01 5.469078e-01 9.614383e+00 80 75 96
-8.220951e-01 5.371196e-01 9.764985e+00 139 128 109
-2.455793e+00 9.691556e-01 9.913019e+00 92 96 83
-5.292595e-01 4.831059e-01 9.832691e+00 105 110 93
-2.778021e+00 7.752837e-01 1.034387e+01 120 89 67
-4.046335e+00 3.948254e-01 1.118988e+01 103 106 86
-5.024172e+00 2.964421e-01 1.170517e+01 93 88 49
-1.477635e+00 3.728803e-01 1.040676e+01 53 58 78
-2.874169e+00 7.254676e-01 1.055052e+01 102 84 72
-2.874169e+00 7.254676e-01 1.055052e+01 102 84 72
-2.671338e+00 1.001598e+00 1.022320e+01 120 91 68
-2.922787e+00 7.007496e-01 1.064106e+01 114 93 73
-4.688922e+00 2.487202e-01 1.177330e+01 116 66 52
-1.195036e+00 3.381770e-01 1.045014e+01 57 65 85
-1.183137e+00 3.392932e-01 1.044903e+01 167 172 168
-2.299087e+00 1.106790e+00 1.004101e+01 77 78 68
-1.058325e+00 3.141102e-01 1.048998e+01 53 57 69
-1.174791e+00 3.012818e-01 1.054990e+01 59 65 78
-1.567526e+00 2.648013e-01 1.078295e+01 43 57 67
-2.647607e+00 1.115248e+00 1.023078e+01 162 147 127
-1.622817e+00 2.159199e-01 1.096459e+01 167 172 172
-1.531430e+00 2.047104e-01 1.096709e+01 59 69 78
-5.028329e+00 1.851443e-02 1.260946e+01 168 179 183
-2.622852e+00 1.253237e+00 1.023605e+01 165 152 140
-2.650460e+00 1.238121e+00 1.028145e+01 114 90 64
-2.469820e+00 1.393659e+00 1.003874e+01 90 68 48
-2.471834e+00 1.401006e+00 1.003029e+01 90 68 48
-4.490168e+00 -7.399134e-02 1.272955e+01 127 75 54
-3.162781e+00 -1.056924e-02 1.219032e+01 49 59 58
-3.536681e+00 -8.744586e-02 1.243383e+01 38 52 41
-3.549202e+00 -8.614755e-02 1.246571e+01 181 179 176
-3.484111e+00 -9.585732e-02 1.245609e+01 57 70 62
-1.212462e+00 -9.444989e-03 1.157686e+01 180 188 182
-3.555851e+00 -1.156820e-01 1.266735e+01 51 56 46
-3.357828e+00 -1.776166e-01 1.266849e+01 187 188 187
-3.130009e+00 -1.648166e-01 1.256932e+01 175 173 171
-5.418957e+00 -2.822091e-01 1.371839e+01 85 99 106
-3.414122e+00 -2.198672e-01 1.285172e+01 185 185 187
-3.292672e+00 -2.454662e-01 1.291634e+01 176 184 182
-2.304027e+00 1.505992e+00 1.013795e+01 73 73 62
-4.687020e-01 -2.411926e-02 1.150313e+01 182 179 184
-4.854088e-01 2.017978e-03 1.147420e+01 182 179 184
-3.229115e+00 -2.648450e-01 1.294559e+01 67 80 74
-2.838285e+00 1.265865e+00 1.072716e+01 131 123 106
-5.010512e+00 -3.804705e-01 1.391047e+01 84 111 102
-8.620128e-01 -1.038702e-01 1.189947e+01 186 182 184
-3.430165e+00 -2.874257e-01 1.324866e+01 155 152 151
-3.424163e+00 -2.995521e-01 1.329797e+01 114 121 119
-3.195014e+00 -3.101516e-01 1.321632e+01 106 108 103
-3.283001e+00 -3.688253e-01 1.337465e+01 172 170 172
-3.257369e+00 -3.812625e-01 1.340418e+01 54 72 56
-3.298381e+00 -3.708314e-01 1.342176e+01 52 60 49
-3.781641e+00 -4.496412e-01 1.372894e+01 64 69 54
-2.281467e+00 1.608984e+00 1.018072e+01 90 90 82
-2.281467e+00 1.608984e+00 1.018072e+01 90 90 82
-2.264251e+00 1.603713e+00 1.018965e+01 70 70 60
-3.234402e+00 -5.947890e-01 1.405373e+01 83 83 82
-3.574393e+00 -6.782188e-01 1.451018e+01 143 150 151
-9.425753e-01 -6.322639e-01 1.361349e+01 155 155 150
-8.890985e-01 -6.348774e-01 1.362870e+01 154 154 151
1.160731e+00 -5.733050e-01 1.265070e+01 120 110 103
-2.316390e+00 1.859953e+00 1.023310e+01 96 96 86
-2.742002e+00 1.698837e+00 1.070141e+01 168 146 138
-2.398615e+00 2.306530e+00 1.032203e+01 100 89 69
-3.932525e+00 9.522077e-01 9.225574e+00 173 176 183
-4.249848e+00 9.416234e-01 9.399174e+00 112 108 117
-4.186932e+00 9.224749e-01 9.432528e+00 154 160 145
-4.196939e+00 9.194981e-01 9.438969e+00 64 62 79
-3.944114e+00 9.125656e-01 9.381997e+00 59 55 79
-3.656677e+00 9.043187e-01 9.303580e+00 146 160 118
-3.650704e+00 8.951788e-01 9.316597e+00 70 63 94
-4.045965e+00 8.949058e-01 9.435089e+00 100 98 106
-4.045965e+00 8.949058e-01 9.435089e+00 100 98 106
-3.952895e+00 9.092266e-01 9.403565e+00 147 143 150
-4.265111e+00 8.895592e-01 9.505184e+00 75 72 89
-4.221471e+00 8.984287e-01 9.516240e+00 64 67 73
-3.872408e+00 8.902723e-01 9.428377e+00 60 62 63
-3.968828e+00 8.883277e-01 9.470730e+00 65 64 89
-3.910665e+00 6.897604e-01 1.009440e+01 169 174 187
-4.738493e+00 6.004440e-01 1.076508e+01 67 70 99
-9.657600e-01 6.268306e-01 9.520815e+00 92 94 55
-9.612130e-01 6.176560e-01 9.526644e+00 92 94 55
-4.637567e+00 5.678402e-01 1.081934e+01 168 179 163
-4.629918e+00 5.705284e-01 1.082658e+01 65 74 91
-2.527057e+00 8.605603e-01 9.912021e+00 107 77 51
-2.586128e+00 8.655603e-01 1.001195e+01 118 102 87
-4.014332e-01 5.218082e-01 9.674657e+00 116 104 93
-2.318018e+00 9.178115e-01 9.975788e+00 83 82 78
-4.494651e+00 2.930368e-01 1.158105e+01 66 69 43
-5.230783e+00 2.680006e-01 1.191206e+01 90 97 99
-1.484517e-01 3.096414e-01 1.028549e+01 167 169 180
-5.674180e+00 1.046247e-01 1.256871e+01 96 97 113
-9.130381e-01 2.500120e-01 1.068870e+01 73 81 95
-9.041156e-01 2.310723e-01 1.070594e+01 73 81 95
-2.394126e+00 1.288758e+00 1.003135e+01 82 84 73
-5.452783e+00 3.897000e-02 1.269554e+01 134 136 138
-1.486066e+00 1.552229e-01 1.113907e+01 62 68 84
-5.219069e+00 2.596937e-03 1.274727e+01 132 135 142
-5.219069e+00 2.596937e-03 1.274727e+01 132 135 142
-3.961269e-01 1.703437e-01 1.078963e+01 174 175 172
-3.970593e-01 1.519564e-01 1.084624e+01 80 85 104
-3.080395e+00 1.202460e-02 1.205440e+01 63 77 78
-2.711843e-01 1.354476e-01 1.086655e+01 171 176 167
-3.526335e+00 -7.081774e-02 1.238443e+01 42 43 37
-3.542713e+00 -7.070053e-02 1.239509e+01 171 178 167
-1.940801e-01 1.261305e-01 1.088572e+01 87 90 100
-2.453800e-01 1.216347e-01 1.091777e+01 69 78 98
-1.603342e+00 3.806708e-02 1.157312e+01 54 64 66
-3.436330e+00 -1.096959e-01 1.248438e+01 78 89 87
-1.290756e+00 6.001434e-02 1.145022e+01 185 187 186
-8.403387e-01 5.173658e-02 1.130964e+01 63 69 76
-1.214633e+00 7.649347e-03 1.154324e+01 77 83 96
-3.280696e+00 -1.509711e-01 1.256645e+01 73 90 90
-1.241528e+00 3.135979e-02 1.154169e+01 86 92 101
-3.202676e+00 -1.916287e-01 1.269702e+01 168 171 170
-3.119159e+00 -2.154787e-01 1.274239e+01 95 101 94
-2.769734e+00 1.298843e+00 1.057289e+01 116 124 86
-1.385402e+00 -1.391560e-01 1.209091e+01 56 57 64
-5.050567e+00 -4.092436e-01 1.397665e+01 111 125 125
-5.102460e+00 -4.103360e-01 1.405521e+01 153 147 121
-3.378385e+00 -2.742624e-01 1.318369e+01 117 119 123
-8.324869e-01 -1.270090e-01 1.194542e+01 101 101 99
-5.003990e+00 -3.744782e-01 1.400346e+01 147 149 130
-3.381306e+00 -3.324249e-01 1.328367e+01 105 111 111
-3.403067e+00 -3.077392e-01 1.328180e+01 112 117 115
-3.132085e+00 -3.022282e-01 1.316282e+01 93 95 95
-3.240005e+00 -3.218379e-01 1.328540e+01 130 121 126
-3.334553e+00 -3.628505e-01 1.339357e+01 102 107 95
-3.355240e+00 -3.608808e-01 1.341164e+01 120 126 126
-2.682109e+00 1.484420e+00 1.048304e+01 157 158 149
-2.784597e+00 1.387539e+00 1.067176e+01 174 172 163
-4.622603e+00 -3.465942e-01 1.397295e+01 131 151 169
-4.355404e+00 -5.103711e-01 1.411708e+01 136 139 144
-4.577872e+00 -5.133194e-01 1.421789e+01 133 145 164
-4.459773e+00 -5.414057e-01 1.426749e+01 131 146 170
-4.459773e+00 -5.414057e-01 1.426749e+01 131 146 170
-8.680184e-01 -3.140925e-01 1.246017e+01 111 115 114
-8.477654e-01 -6.430059e-01 1.364679e+01 152 152 146
-8.477654e-01 -6.430059e-01 1.364679e+01 152 152 146
-2.294484e+00 1.881386e+00 1.024811e+01 32 29 24
-2.294831e+00 1.881622e+00 1.024612e+01 32 29 24
-3.505697e+00 -4.063814e-02 1.233738e+01 56 40 49
-3.583291e+00 2.971643e-01 1.137614e+01 126 116 113
-2.050846e+01 1.625692e+01 -3.492872e+01 78 100 110
-2.101129e+01 1.662832e+01 -3.546783e+01 255 252 251
-1.635267e+00 2.194214e-01 1.094828e+01 35 34 40
-1.484967e+00 3.770680e-01 1.041141e+01 63 66 100
-1.502214e+00 2.781391e-01 1.072872e+01 159 156 150
-1.577534e+00 2.940194e-01 1.069138e+01 160 157 149
-1.557582e+00 3.823400e-01 1.041384e+01 145 147 134
-4.023566e+00 3.484403e-01 1.132189e+01 95 102 75
-3.074460e+00 2.809263e-02 1.203269e+01 17 16 22
-3.048495e+00 4.379546e-02 1.198965e+01 30 23 30
-1.006483e+00 3.695489e-01 1.032450e+01 24 22 28
-1.314766e+00 5.718216e-02 1.144838e+01 168 164 156
-1.076969e+00 3.846454e-01 1.029060e+01 25 20 26
-1.207752e+00 3.112774e-01 1.055706e+01 158 157 155
-1.412877e+00 3.937411e-01 1.034300e+01 44 39 59
-1.505535e+00 2.480827e-01 1.082700e+01 127 115 119
-1.217619e+00 3.576217e-01 1.041041e+01 35 32 61
-1.310577e+00 4.335716e-01 1.020239e+01 32 35 32
-1.399665e+00 4.667028e-01 1.011776e+01 168 163 154
-1.226609e+00 3.696147e-01 1.037870e+01 72 65 78
-9.945585e-01 1.206593e+00 9.204439e+00 133 158 186
-1.017934e+00 3.264394e-01 1.046024e+01 183 180 175
-1.341103e+01 3.560005e+00 5.022658e+00 77 71 59
-1.021422e+00 3.846853e-01 1.027734e+01 176 171 168
-9.626779e-01 4.858410e-01 9.948136e+00 54 56 54
-1.050718e+00 5.298814e-01 9.834460e+00 119 116 107
-1.019149e+00 3.561584e-01 1.036620e+01 174 174 164
-2.899685e+00 6.433977e-02 1.191249e+01 48 36 43
-1.328783e+01 3.200827e+00 4.798739e+00 59 60 54
-3.055581e+00 2.833720e-02 1.204651e+01 142 143 100
-2.959166e+00 1.030651e-01 1.180988e+01 137 148 95
-3.030371e+00 1.094460e-01 1.181071e+01 60 53 55
-1.064133e+00 5.259014e-01 9.855683e+00 71 72 67
-9.755054e-01 5.991882e-01 9.604080e+00 59 70 93
-3.596559e+00 2.804821e-01 1.141837e+01 84 34 28
-1.261760e+00 4.593499e-01 1.011071e+01 57 55 60
3.380643e+00 -4.871371e+00 3.663254e+00 113 115 69
-4.179654e+00 6.218060e-01 1.037690e+01 138 139 138
-1.511613e+00 1.559168e-01 1.111576e+01 174 172 166
-6.689293e-01 3.162976e-01 1.041101e+01 126 115 114
-5.662341e-01 5.036959e-01 9.796916e+00 49 56 67
-6.994346e-01 6.056431e-01 9.528550e+00 84 86 84
-1.319661e+00 4.733574e-01 1.007607e+01 187 182 176
-4.401907e+00 5.308695e-01 1.074570e+01 187 182 178
-4.842497e+00 6.507956e-01 1.054286e+01 56 39 45
-4.246600e+00 7.479587e-01 9.989159e+00 153 153 143
-4.259643e+00 7.678522e-01 9.927835e+00 157 153 148
-4.668820e+00 5.397375e-01 1.085457e+01 54 44 46
-4.673334e+00 5.415373e-01 1.085607e+01 54 44 46
-4.647116e+00 5.495453e-01 1.082126e+01 139 144 130
-4.635773e+00 5.321962e-01 1.087397e+01 58 43 45
-4.680830e+00 5.502236e-01 1.082151e+01 72 57 76
-4.752334e+00 5.769365e-01 1.076806e+01 87 62 94
-4.521419e+00 7.028629e-01 1.022556e+01 70 59 75
-4.119380e+00 5.960852e-01 1.044872e+01 65 63 67
-4.434358e+00 6.737390e-01 1.029935e+01 59 54 65
-4.536316e+00 7.036783e-01 1.023301e+01 132 140 131
-4.597053e+00 7.214294e-01 1.018914e+01 74 69 84
-4.437430e+00 6.774673e-01 1.028073e+01 129 134 113
-4.321580e+00 6.481179e-01 1.033948e+01 146 144 137
-4.547376e+00 7.151068e-01 1.019261e+01 82 72 93
-4.376548e+00 8.062284e-01 9.837181e+00 88 84 99
-4.009114e+00 3.376308e-01 1.131775e+01 23 21 25
-4.080159e+00 7.041417e-01 1.007045e+01 160 156 153
-4.070394e+00 7.337370e-01 9.971031e+00 162 156 158
-4.099968e+00 7.077464e-01 1.006508e+01 154 152 149
-4.174421e+00 6.115289e-01 1.041337e+01 147 144 137
-3.891482e+00 6.140717e-01 1.031049e+01 75 76 85
-4.995926e+00 7.585833e-01 1.021744e+01 85 67 53
-4.995926e+00 7.585833e-01 1.021744e+01 85 67 53
-4.722580e+00 7.568397e-01 1.010411e+01 152 156 130
-5.009544e+00 7.485206e-01 1.025659e+01 102 87 71
-4.472063e+00 6.794559e-01 1.027805e+01 112 106 116
-4.381464e+00 7.684533e-01 9.953481e+00 108 104 104
-4.376811e+00 7.658283e-01 9.963377e+00 149 148 135
-4.641980e+00 7.289636e-01 1.017903e+01 100 84 81
-4.637486e+00 7.270596e-01 1.017629e+01 100 84 81
-4.710711e+00 6.887489e-01 1.033451e+01 147 143 131
-4.758539e+00 6.796804e-01 1.038897e+01 151 151 140
-4.741665e+00 6.895202e-01 1.035915e+01 146 143 135
-4.512719e+00 8.330653e-01 9.794950e+00 70 54 59
-4.647349e+00 7.323441e-01 1.016649e+01 53 44 52
-4.650102e+00 7.278136e-01 1.018874e+01 135 136 126
-4.552735e+00 7.006402e-01 1.024065e+01 58 47 51
-4.438459e+00 7.765262e-01 9.953279e+00 142 140 111
-4.388790e+00 7.691184e-01 9.969871e+00 71 66 74
-3.592703e+00 8.938067e-01 9.334550e+00 41 39 56
-3.417897e+00 8.457916e-01 9.425280e+00 50 41 70
-3.400446e+00 1.019292e+00 8.877288e+00 63 74 117
-3.106059e+00 1.009994e+00 8.815518e+00 84 84 112
-4.476896e+00 8.455166e-01 9.741241e+00 132 138 97
-3.658988e+00 1.036649e+00 8.898044e+00 65 55 107
-3.436135e+00 1.015054e+00 8.904498e+00 174 173 174
-3.436135e+00 1.015054e+00 8.904498e+00 174 173 174
-3.419523e+00 1.037025e+00 8.832517e+00 36 32 53
1.120235e+01 2.571176e+00 1.220829e+00 61 53 48
-2.869031e+00 1.185314e+00 1.078286e+01 120 126 98
-2.776999e+00 1.363514e+00 1.065331e+01 150 138 132
-3.815708e+00 8.695103e-01 9.475483e+00 52 43 59
-3.395018e+00 1.041014e+00 8.814792e+00 168 170 169
-2.856054e+00 9.742372e-01 1.064292e+01 142 122 90
-2.903384e+00 1.074768e+00 1.080589e+01 117 121 96
4.320497e-01 1.177214e+00 7.522930e+00 138 138 120
-3.717614e+00 8.832403e-01 9.453902e+00 92 87 93
-3.493252e+00 9.940901e-01 8.989945e+00 88 72 118
-2.901457e+00 6.771324e-01 1.061351e+01 112 85 66
-2.761398e+00 1.595726e+00 1.074160e+01 128 137 155
-2.210683e+00 4.888908e-01 1.046755e+01 135 118 88
-8.860458e-01 -4.682482e-01 1.321915e+01 167 167 169
-2.607755e+00 1.829581e+00 1.050476e+01 137 119 107
-4.193370e+00 6.070860e-01 1.039471e+01 145 152 135
-4.193370e+00 6.070860e-01 1.039471e+01 145 152 135
-3.003860e+00 -1.953112e-01 1.274150e+01 145 147 154
-1.552158e+00 -2.583835e-01 1.258276e+01 170 168 169
-1.751371e+00 8.636963e-01 8.924772e+00 69 76 68
-1.761673e+00 8.621094e-01 8.925524e+00 69 76 68
-2.658283e+00 1.662808e+00 1.050248e+01 71 88 110
-4.024307e+00 5.777492e-01 1.040888e+01 169 168 166
-3.837938e+00 3.271236e-01 1.128696e+01 112 112 97
-4.015184e+00 1.161512e+00 8.638256e+00 149 149 151
-3.960597e+00 1.118405e+00 8.667649e+00 151 151 153
-3.051322e+00 -1.755116e-01 1.258684e+01 40 39 58
-2.941052e+00 -1.051261e-01 1.242934e+01 35 43 48
-2.839825e+00 -2.365132e-01 1.280867e+01 157 158 141
-2.557962e+00 -1.800077e-02 1.202760e+01 38 44 49
-1.710935e+00 -4.459173e-02 1.190753e+01 116 109 113
-1.495293e+00 8.763360e-01 8.890725e+00 185 182 189
-2.660694e+00 1.835114e+00 1.063711e+01 57 48 35
-2.544217e+00 2.034683e+00 1.047069e+01 147 154 151
-4.427337e+00 7.943314e-01 9.855699e+00 147 150 142
-4.427337e+00 7.943314e-01 9.855699e+00 147 150 142
-4.313734e+00 6.334490e-01 1.035835e+01 131 136 114
-4.299659e+00 7.515907e-01 9.963268e+00 163 159 157
-4.149325e+00 7.113177e-01 1.003454e+01 167 163 160
-3.920917e+00 9.597031e-01 9.183282e+00 80 85 60
-3.435776e+00 8.536785e-01 9.402775e+00 94 93 126
-3.432159e+00 8.492399e-01 9.399935e+00 94 93 126
-2.682347e+00 1.286659e+00 7.987455e+00 167 165 166
-1.831672e+00 -2.585288e-01 1.255596e+01 165 162 161
-2.320485e+00 1.219678e+00 7.976609e+00 142 143 124
-1.570177e+00 -2.260236e-01 1.246509e+01 167 168 162
-1.527841e+00 7.456953e-02 1.138162e+01 42 51 49
-1.210152e+00 -1.542629e-01 1.214106e+01 159 151 148
-2.545361e+00 1.416600e+00 1.020621e+01 146 133 115
-4.239915e+00 7.613260e-01 9.897950e+00 164 160 157
-4.057862e+00 3.057253e-01 1.130149e+01 174 174 173
-4.156887e+00 7.036508e-01 1.007859e+01 133 139 120
-4.019239e+00 3.671664e-01 1.119993e+01 111 108 99
-2.918612e+00 -1.942591e-01 1.271812e+01 164 163 163
-2.938064e+00 -1.811147e-01 1.270461e+01 164 163 163
-3.303575e+00 1.194567e+00 8.324095e+00 79 72 108
-2.710410e+00 -1.572865e-01 1.246145e+01 164 164 166
-2.622671e+00 -1.415422e-01 1.250336e+01 164 164 164
-1.755843e+00 -5.338987e-02 1.196087e+01 174 171 172
-2.860036e+00 1.270542e+00 1.080739e+01 153 151 155
-1.756384e-01 -1.675130e-01 1.158491e+01 95 91 91
-1.756384e-01 -1.675130e-01 1.158491e+01 95 91 91
-5.696497e-01 6.556319e-01 9.266407e+00 67 75 69
2.981063e-01 6.783327e-01 9.113925e+00 176 176 180
1.101008e+01 -2.047827e-01 9.273465e+00 88 81 78
-4.520649e+00 8.315574e-01 9.755106e+00 155 155 151
-4.095809e+00 7.134529e-01 1.004580e+01 135 140 125
-3.803199e+00 6.871718e-01 1.003916e+01 169 165 162
-3.333081e+00 1.168577e+00 8.357924e+00 166 164 167
-2.528704e+00 7.946455e-01 9.888234e+00 66 52 46
-1.607250e+00 -1.405332e-01 1.216595e+01 171 170 171
-1.389460e+00 -4.829927e-01 1.336084e+01 112 107 107
-1.181786e+00 -4.996959e-01 1.345072e+01 136 129 123
-9.778215e-01 -4.360480e-01 1.297925e+01 108 63 36
-9.741326e-01 -5.004587e-01 1.334530e+01 71 88 35
-2.629784e+00 1.729724e+00 1.047777e+01 139 128 122
-4.063986e+00 1.142615e+00 8.709216e+00 148 146 144
-3.872867e+00 1.150493e+00 8.634422e+00 47 29 35
-3.873352e+00 1.148199e+00 8.623621e+00 47 29 35
-2.189141e+00 -3.227093e-01 1.301374e+01 163 165 158
-1.538449e+00 -4.478712e-01 1.329776e+01 109 107 105
-1.444754e+00 -1.415699e-01 1.210802e+01 172 171 174
-1.268749e+00 -4.890208e-01 1.341237e+01 121 116 111
-1.250365e+00 -4.973436e-01 1.342444e+01 121 116 111
-1.211355e+00 -4.114467e-01 1.309923e+01 164 163 167
-1.194149e+00 -2.995501e-01 1.254625e+01 166 170 173
-1.272164e+00 -2.548641e-02 1.170901e+01 118 117 121
-2.541431e+00 1.176552e+00 1.010335e+01 137 124 115
-1.043505e+00 -5.207677e-01 1.351132e+01 144 137 131
-7.418595e-01 -4.239201e-01 1.301084e+01 104 120 70
-6.140535e-01 -4.248512e-01 1.291002e+01 105 121 110
-6.140535e-01 -4.248512e-01 1.291002e+01 105 121 110
-4.748113e-01 6.637886e-01 9.303493e+00 183 180 181
-2.662373e+00 1.585621e+00 1.052260e+01 151 142 145
-3.628740e-01 1.255314e+00 7.401373e+00 148 145 136
-2.726969e+00 1.703671e+00 1.070355e+01 127 105 91
8.656494e-01 5.798153e-01 9.118437e+00 147 144 129
8.656494e-01 5.798153e-01 9.118437e+00 147 144 129
9.939129e-01 7.317953e-01 8.789765e+00 132 139 104
-2.755265e+00 2.035459e+00 1.093975e+01 133 114 99
-2.446252e+00 2.145649e+00 1.082638e+01 78 74 62
-4.469188e+00 6.680483e-01 1.027962e+01 157 159 151
-4.421367e+00 7.933189e-01 9.859765e+00 146 152 136
-4.400694e+00 7.505366e-01 9.985298e+00 154 153 148
-4.131336e+00 5.163642e-01 1.068864e+01 175 177 174
-4.103860e+00 5.848439e-01 1.045578e+01 166 164 158
-3.986371e+00 3.588979e-01 1.121877e+01 177 176 181
-3.952734e+00 9.634182e-01 9.158693e+00 157 158 155
-3.544971e+00 -1.634203e-01 1.273694e+01 25 25 29
-3.940949e+00 1.167097e+00 8.603988e+00 57 37 36
-3.504068e+00 -1.811876e-01 1.271522e+01 22 22 28
-3.486949e+00 -1.748149e-01 1.272455e+01 32 29 50
-3.669366e+00 1.160620e+00 8.543301e+00 54 41 65
-2.971579e+00 -9.581364e-02 1.235961e+01 169 167 168
-3.220952e+00 9.883554e-01 8.904406e+00 41 34 54
-2.824302e+00 7.724133e-01 1.043659e+01 144 128 107
-2.895722e+00 8.817358e-01 1.067730e+01 142 130 111
-2.506045e+00 9.673760e-01 9.927583e+00 116 79 54
-2.088934e+00 1.090003e+00 8.308097e+00 76 83 85
-2.887645e+00 1.102173e+00 1.077379e+01 140 131 104
-1.292652e+00 -5.005493e-01 1.347893e+01 112 109 102
-1.292652e+00 -5.005493e-01 1.347893e+01 112 109 102
-2.514582e+00 1.137199e+00 1.000287e+01 142 127 104
-2.729991e+00 1.293897e+00 1.049749e+01 45 45 39
-7.784522e-01 -4.886434e-01 1.320059e+01 108 122 111
-2.876909e+00 1.390984e+00 1.091036e+01 148 149 148
-8.742299e-01 1.237960e+00 7.633431e+00 109 131 143
-2.715346e-01 1.171760e+00 7.655658e+00 147 144 139
1.141561e-01 1.084297e+00 7.820641e+00 141 136 129
1.141561e-01 1.084297e+00 7.820641e+00 141 136 129
-4.539541e+00 6.904019e-01 1.023068e+01 55 46 70
-4.440831e+00 6.717640e-01 1.027621e+01 52 38 59
-4.378159e+00 7.492156e-01 9.987092e+00 86 76 87
-4.317661e+00 6.328889e-01 1.037235e+01 55 52 62
-4.284993e+00 7.376702e-01 1.000379e+01 69 63 77
-4.229459e+00 6.262550e-01 1.035735e+01 50 41 62
-4.204688e+00 6.103263e-01 1.040274e+01 158 158 148
-4.161347e+00 6.008381e-01 1.041629e+01 51 43 58
-4.082297e+00 7.156949e-01 1.001913e+01 148 156 138
-3.486953e+00 -1.715975e-01 1.270328e+01 148 151 137
-3.486953e+00 -1.715975e-01 1.270328e+01 148 151 137
-3.473351e+00 -1.759990e-01 1.277058e+01 26 31 27
-3.478864e+00 -1.612505e-01 1.272933e+01 148 151 146
-3.435559e+00 -1.607615e-01 1.272783e+01 35 27 50
-3.804690e+00 1.194115e+00 8.486244e+00 85 57 79
-3.318859e+00 -2.023709e-01 1.278464e+01 30 27 49
-3.315809e+00 -2.018060e-01 1.283931e+01 29 28 42
-3.309541e+00 -1.950775e-01 1.281094e+01 24 24 31
-3.265953e+00 -2.043106e-01 1.280359e+01 35 31 59
-3.235303e+00 -2.126307e-01 1.280926e+01 149 148 152
-3.224189e+00 -2.077293e-01 1.282271e+01 30 28 40
-3.708874e+00 1.257172e+00 8.257582e+00 79 51 70
-3.165144e+00 -2.323768e-01 1.284865e+01 31 33 46
-3.607111e+00 1.234059e+00 8.307124e+00 66 45 65
-3.562807e+00 1.205615e+00 8.370967e+00 70 49 70
-3.131048e+00 -1.541050e-02 1.215442e+01 32 31 52
-3.024820e+00 -2.429571e-01 1.294369e+01 25 33 29
-3.505511e+00 1.230998e+00 8.285092e+00 159 157 164
-2.909880e+00 -2.416334e-01 1.278438e+01 105 105 110
-2.909880e+00 -2.416334e-01 1.278438e+01 105 105 110
-3.404426e+00 1.213195e+00 8.249998e+00 158 157 154
-2.361685e+00 -3.091089e-01 1.289266e+01 159 157 156
-2.373439e+00 -3.564865e-01 1.319748e+01 25 30 39
-2.275305e+00 -3.831352e-01 1.324716e+01 32 27 37
-2.253126e+00 -3.733505e-01 1.321600e+01 26 28 49
-2.215603e+00 -3.855547e-01 1.327520e+01 27 31 34
-2.192819e+00 -4.024549e-01 1.330623e+01 155 154 147
-2.159360e+00 -4.069377e-01 1.333232e+01 31 40 45
-2.572461e+00 7.364791e-01 9.938714e+00 87 71 64
-2.015508e+00 -3.512579e-01 1.308444e+01 158 160 155
-2.897771e+00 8.599227e-01 1.069271e+01 80 52 44
-2.820123e+00 8.734713e-01 1.049147e+01 84 56 39
-2.589430e+00 8.511987e-01 1.002112e+01 147 134 123
-2.528738e+00 9.614933e-01 9.964980e+00 149 133 113
-2.846354e+00 1.044965e+00 1.064030e+01 140 124 105
-1.628720e+00 1.200943e-01 1.129932e+01 168 171 180
-1.355469e+00 -2.274154e-01 1.212256e+01 169 168 173
-2.581265e+00 1.051684e+00 1.009229e+01 54 41 33
-1.232414e+00 -3.839114e-01 1.297386e+01 65 68 58
-2.721236e+00 1.169976e+00 1.041616e+01 85 46 37
-1.246671e+00 2.016357e-02 1.152296e+01 177 175 178
-2.629058e+00 1.193322e+00 1.021349e+01 146 129 111
-2.678626e+00 1.214808e+00 1.033983e+01 105 76 51
-9.267202e-01 -2.090385e-01 1.221901e+01 175 170 177
-4.205929e-01 -7.790323e-01 1.404119e+01 92 78 66
-5.796796e-01 -3.914311e-01 1.278864e+01 110 117 116
-2.806595e+00 1.381130e+00 1.072448e+01 63 68 46
-8.881959e-01 6.465565e-01 9.431373e+00 50 64 80
7.457827e-01 -7.072824e-01 1.323795e+01 110 101 86
-2.774891e+00 1.665894e+00 1.081476e+01 136 121 110
1.097303e+00 -6.577957e-01 1.293556e+01 69 60 57
1.288047e+00 -5.793070e-01 1.255443e+01 124 107 93
5.877374e-01 6.582775e-01 9.044302e+00 61 67 49
5.921240e-01 7.258307e-01 8.886878e+00 62 69 46
5.838177e-01 7.480843e-01 8.796342e+00 135 136 123
2.790250e-01 1.171309e+00 7.561692e+00 104 91 74
2.790250e-01 1.171309e+00 7.561692e+00 104 91 74
9.590104e-01 8.379014e-01 8.466453e+00 107 128 66
1.373570e+00 5.964481e-01 9.126624e+00 147 148 129
-4.365885e+00 2.402849e-01 1.159538e+01 131 142 127
-4.445899e+00 6.678130e-01 1.030549e+01 137 147 116
-4.410420e+00 5.256161e-01 1.077826e+01 169 170 172
-4.464571e+00 7.740280e-01 9.935573e+00 138 142 118
-4.433089e+00 6.635784e-01 1.028944e+01 142 148 122
-4.347647e+00 6.504237e-01 1.032069e+01 63 55 72
-4.327671e+00 6.342237e-01 1.034301e+01 147 151 131
-4.355066e+00 7.792309e-01 9.881300e+00 137 143 118
-4.356375e+00 7.801972e-01 9.881628e+00 137 143 118
-4.349522e+00 7.883601e-01 9.855419e+00 66 54 74
-4.269452e+00 6.333461e-01 1.033842e+01 80 71 104
-4.289243e+00 7.723407e-01 9.882468e+00 74 67 90
-4.206552e+00 6.107637e-01 1.038938e+01 47 46 55
-4.131239e+00 7.344633e-01 9.967460e+00 147 154 134
-4.062468e+00 7.154338e-01 1.001006e+01 57 50 80
-3.932116e+00 6.884447e-01 1.006818e+01 42 36 61
-3.460834e+00 -1.695978e-01 1.276062e+01 138 143 131
-3.426391e+00 -2.003176e-01 1.279154e+01 35 37 35
-3.408728e+00 -1.486355e-01 1.253395e+01 33 36 45
-3.407429e+00 -1.228453e-01 1.252982e+01 40 43 55
-3.386902e+00 -1.369535e-01 1.256872e+01 30 37 45
-3.178725e+00 -3.239074e-01 1.254951e+01 33 32 48
-3.320668e+00 -1.979887e-01 1.279956e+01 146 151 141
-3.320668e+00 -1.979887e-01 1.279956e+01 146 151 141
-3.319925e+00 -1.339121e-01 1.257391e+01 39 46 65
-3.644556e+00 9.067279e-01 9.278724e+00 164 170 161
-3.284654e+00 -2.178505e-01 1.283921e+01 147 152 141
-3.316558e+00 -1.310384e-01 1.258651e+01 154 157 147
-3.316558e+00 -1.310384e-01 1.258651e+01 154 157 147
-3.269512e+00 -2.140195e-01 1.281830e+01 151 149 137
-3.257046e+00 -2.161104e-01 1.284823e+01 145 147 136
-3.257046e+00 -2.161104e-01 1.284823e+01 145 147 136
-3.193166e+00 -2.408022e-01 1.289595e+01 37 41 52
-3.205993e+00 -2.176152e-01 1.284379e+01 138 151 130
-3.665314e+00 1.234858e+00 8.324661e+00 85 61 94
-3.635432e+00 1.168333e+00 8.512468e+00 66 50 87
-3.487192e+00 8.628169e-01 9.412091e+00 56 47 88
-3.108706e+00 -2.581190e-01 1.293039e+01 41 47 44
-3.094701e+00 -1.586149e-01 1.254005e+01 40 43 54
-3.526974e+00 1.226287e+00 8.306529e+00 69 58 83
-3.022531e+00 -2.440019e-01 1.296046e+01 145 159 133
-2.959617e+00 -1.798587e-01 1.259309e+01 159 157 155
-2.940300e+00 -1.856680e-01 1.260855e+01 35 43 62
-2.882460e+00 -2.068008e-01 1.275647e+01 157 156 154
-3.101311e+00 1.024817e+00 8.777684e+00 165 173 152
-2.439149e+00 -3.481316e-01 1.316166e+01 46 49 65
-2.439149e+00 -3.481316e-01 1.316166e+01 46 49 65
-2.342539e+00 -3.657303e-01 1.321345e+01 34 32 44
-2.263123e+00 -3.776607e-01 1.323117e+01 153 148 136
-2.916956e+00 7.472949e-01 1.069815e+01 86 77 60
-2.927752e+00 7.507623e-01 1.069660e+01 86 77 60
-2.120655e+00 -3.892497e-01 1.327422e+01 44 47 73
-2.795279e+00 7.681612e-01 1.037987e+01 147 127 109
-2.017601e+00 -4.136975e-01 1.332464e+01 157 149 152
-2.529386e+00 8.858657e-01 9.930362e+00 122 67 53
-1.580112e+00 -4.977918e-01 1.351024e+01 160 147 160
-2.572133e+00 9.650297e-01 1.002478e+01 147 134 116
-1.588445e+00 -4.454658e-01 1.334135e+01 124 118 128
-2.834480e+00 1.023090e+00 1.059851e+01 107 73 37
-2.885793e+00 1.036352e+00 1.073468e+01 101 76 45
-2.912171e+00 1.060399e+00 1.085704e+01 126 129 108
-2.825430e+00 1.104343e+00 1.061531e+01 131 113 96
-2.568729e+00 1.079196e+00 1.009327e+01 83 54 44
-1.228168e+00 -2.360009e-01 1.211168e+01 49 47 50
-2.712029e+00 1.136561e+00 1.037446e+01 107 85 57
-2.856924e+00 1.158331e+00 1.072574e+01 125 119 97
-1.286436e+00 2.772239e-02 1.150609e+01 120 124 129
-2.709443e+00 1.192981e+00 1.039955e+01 133 116 101
-2.885321e+00 1.205942e+00 1.085710e+01 106 109 93
-1.015239e+00 -5.179269e-01 1.339555e+01 79 93 45
-2.636765e+00 1.237094e+00 1.027045e+01 140 119 96
-7.738682e-01 -4.108182e-01 1.283142e+01 138 138 128
-6.991925e-01 -4.837269e-01 1.316203e+01 112 125 115
-1.027658e+00 7.275391e-01 9.226382e+00 75 47 44
1.269939e-01 -2.014608e-01 1.178249e+01 174 169 170
-3.928347e-01 8.237818e-01 8.773195e+00 137 128 130
8.089738e-01 -5.446157e-01 1.258013e+01 72 67 60
3.568776e-02 8.177603e-01 8.761826e+00 44 57 70
1.150697e+00 -5.905341e-01 1.264700e+01 72 70 58
-2.588700e+00 2.125584e+00 1.063120e+01 74 32 28
-2.570512e+00 2.148332e+00 1.060563e+01 134 115 94
-2.559224e+00 2.147971e+00 1.056779e+01 132 116 96
-2.554592e+00 2.153074e+00 1.056869e+01 132 116 96
-2.563855e+00 2.163110e+00 1.059897e+01 120 95 82
-4.549348e+00 6.989274e-01 1.020347e+01 87 76 106
-4.552162e+00 7.019531e-01 1.020420e+01 87 76 106
-4.533615e+00 6.965857e-01 1.022422e+01 160 151 160
-4.489893e+00 6.809203e-01 1.026090e+01 138 141 121
-4.412663e+00 6.705848e-01 1.027055e+01 89 79 102
-4.435787e+00 7.663718e-01 9.958482e+00 72 69 86
-4.334086e+00 7.472366e-01 9.992713e+00 58 55 68
-4.304058e+00 6.320193e-01 1.037571e+01 140 146 122
-4.315899e+00 7.739436e-01 9.889737e+00 74 70 89
-4.214218e+00 6.023497e-01 1.041948e+01 76 67 89
-4.237344e+00 7.077998e-01 1.008977e+01 86 80 94
-4.235695e+00 7.059086e-01 1.008917e+01 86 80 94
-4.196324e+00 5.986829e-01 1.042797e+01 80 74 106
-4.127577e+00 5.852145e-01 1.046078e+01 81 77 97
-4.035521e+00 3.687952e-01 1.118862e+01 96 94 94
-4.117309e+00 7.269880e-01 9.992918e+00 140 144 123
-4.041931e+00 6.767212e-01 1.012942e+01 143 151 130
-4.054309e+00 8.520328e-01 9.570949e+00 75 69 100
-3.943503e+00 6.933576e-01 1.005818e+01 149 155 132
-3.939576e+00 8.697190e-01 9.479221e+00 74 68 89
-3.869608e+00 8.825403e-01 9.427625e+00 52 43 49
-3.794177e+00 6.946995e-01 1.000013e+01 167 169 157
-3.444953e+00 -1.638113e-01 1.273698e+01 136 142 116
-3.385082e+00 -2.168755e-01 1.281285e+01 39 44 48
-3.360974e+00 -1.464860e-01 1.252790e+01 53 56 76
-3.272739e+00 -2.178629e-01 1.285113e+01 61 58 88
-3.272739e+00 -2.178629e-01 1.285113e+01 61 58 88
-3.213571e+00 -2.050325e-01 1.280804e+01 57 47 89
-3.523053e+00 8.820810e-01 9.342316e+00 45 47 53
-3.175093e+00 -2.174752e-01 1.285674e+01 152 155 150
-3.178691e+00 -2.069966e-01 1.282286e+01 51 48 82
-3.129845e+00 -2.188075e-01 1.272043e+01 47 53 65
-3.169454e+00 -1.639333e-01 1.264462e+01 143 146 127
-3.129510e+00 -1.494997e-01 1.257475e+01 155 157 142
-3.129510e+00 -1.494997e-01 1.257475e+01 155 157 142
-3.068964e+00 -2.627781e-01 1.294865e+01 41 50 45
-3.148911e+00 -9.816796e-03 1.216090e+01 154 157 126
-3.524000e+00 1.142207e+00 8.553127e+00 76 64 90
-3.046925e+00 -2.482891e-01 1.295667e+01 52 58 54
-3.046925e+00 -2.482891e-01 1.295667e+01 52 58 54
-3.490727e+00 1.143362e+00 8.540272e+00 75 69 93
-2.989099e+00 -2.580942e-01 1.294715e+01 143 140 138
-2.984231e+00 -9.584612e-02 1.238955e+01 158 162 146
-2.799414e+00 -2.726246e-01 1.286567e+01 31 32 47
-2.744288e+00 -2.631533e-01 1.282889e+01 158 156 158
-2.594423e+00 -2.449949e-01 1.276155e+01 37 41 51
-2.701337e+00 6.271193e-01 1.015439e+01 132 97 73
-2.182936e+00 -3.915736e-01 1.326233e+01 141 146 115
-2.827440e+00 7.567825e-01 1.046520e+01 113 91 67
-2.816233e+00 7.972626e-01 1.043977e+01 90 73 57
-2.755313e+00 8.525159e-01 1.033903e+01 110 78 55
-2.600192e+00 8.250836e-01 1.001986e+01 102 81 61
-2.761642e+00 8.657674e-01 1.034922e+01 142 117 94
-1.865888e+00 -4.485362e-01 1.340449e+01 51 45 72
-1.787027e+00 -2.452378e-01 1.256304e+01 71 76 86
-2.391155e+00 1.254393e+00 7.901865e+00 162 166 155
-2.293109e+00 1.147433e+00 8.195105e+00 52 54 77
-2.657185e+00 9.728462e-01 1.017959e+01 105 71 51
-2.092398e+00 1.173496e+00 8.071150e+00 67 68 92
-2.092398e+00 1.173496e+00 8.071150e+00 67 68 92
-2.072424e+00 1.287897e+00 7.744956e+00 53 54 41
-1.340342e+00 -2.574264e-01 1.256788e+01 126 87 117
-2.750219e+00 1.142375e+00 1.046609e+01 75 43 31
-1.734130e+00 8.567080e-01 9.002484e+00 112 113 109
-2.643053e+00 1.183161e+00 1.025318e+01 63 42 34
-2.644548e+00 1.215834e+00 1.026900e+01 87 61 51
-1.039979e+00 -4.973523e-01 1.341945e+01 116 120 103
-2.585397e+00 1.235548e+00 1.017365e+01 71 51 40
-2.585328e+00 1.235450e+00 1.017364e+01 71 51 40
-8.048901e-01 -2.112248e-01 1.189942e+01 115 116 115
-8.048901e-01 -2.112248e-01 1.189942e+01 115 116 115
-8.026992e-01 -5.250482e-01 1.338018e+01 106 124 116
-1.188404e+00 6.346277e-01 9.560441e+00 174 166 165
-6.381557e-01 -2.897157e-01 1.236064e+01 105 101 98
-1.052820e+00 9.743683e-01 8.452107e+00 63 68 67
-8.445350e-01 6.656659e-01 9.420201e+00 47 61 68
-5.969789e-01 6.012643e-01 9.479053e+00 71 76 68
-7.564950e-01 1.164794e+00 7.828758e+00 168 171 176
-2.745499e+00 1.608825e+00 1.069584e+01 34 52 92
-2.542279e-01 8.402087e-01 8.699066e+00 120 120 112
1.735217e-01 6.373930e-01 9.210864e+00 87 96 84
-2.663715e+00 1.858704e+00 1.064161e+01 34 24 15
6.574053e-01 1.121107e+00 7.673292e+00 99 93 61
-2.568269e+00 2.138649e+00 1.059401e+01 92 61 47
-4.410891e+00 5.261847e-01 1.076014e+01 152 149 148
-3.714961e+00 9.803336e-01 9.616533e+00 160 162 142
-2.904510e+00 -2.963497e-01 1.302129e+01 43 53 46
-3.396205e+00 1.167351e+00 8.442436e+00 67 58 75
-2.838248e+00 -2.643932e-01 1.284855e+01 54 58 67
-2.670704e+00 5.803150e-01 1.009672e+01 68 54 49
-2.703431e+00 6.481993e-01 1.015246e+01 99 54 51
-2.181292e+00 -4.020072e-01 1.327618e+01 140 135 143
-2.682829e+00 1.290141e+00 7.854217e+00 132 139 100
-2.833796e+00 8.527488e-01 1.050607e+01 87 81 51
-1.954182e+00 -3.578548e-01 1.308711e+01 74 78 82
-2.748773e+00 8.466976e-01 1.032024e+01 145 124 97
-2.454013e+00 1.010986e+00 8.683480e+00 69 74 91
-1.871458e+00 -4.497897e-01 1.339082e+01 141 130 151
-1.935478e+00 1.557368e-01 1.122961e+01 51 59 63
-1.446372e+00 -2.348489e-01 1.215903e+01 53 52 60
-2.535077e+00 1.020769e+00 9.997439e+00 90 73 66
-2.731868e+00 1.076999e+00 1.039259e+01 119 111 96
-2.650737e+00 1.082557e+00 1.023298e+01 92 74 52
-2.650737e+00 1.082557e+00 1.023298e+01 92 74 52
-2.894738e+00 1.120738e+00 1.080268e+01 59 62 41
-1.239342e+00 -2.521618e-01 1.210695e+01 164 157 156
-2.680560e+00 1.118113e+00 1.030838e+01 110 71 32
-2.006746e+00 1.249335e+00 7.843775e+00 147 150 121
-1.620261e+00 7.476459e-01 9.295648e+00 65 81 91
-9.621623e-01 -5.156737e-01 1.337371e+01 82 98 51
-2.747560e+00 1.276014e+00 1.052573e+01 76 65 50
-2.840405e+00 1.310210e+00 1.077050e+01 51 56 39
-1.253588e+00 6.590072e-01 9.514564e+00 77 72 56
-1.153717e+00 6.299237e-01 9.570645e+00 85 94 107
-1.523640e+00 1.317596e+00 7.487889e+00 87 77 89
-2.864359e+00 1.374629e+00 1.086301e+01 122 125 127
-5.296044e-01 -1.903456e-01 1.176215e+01 94 92 95
-4.972640e-01 -3.974381e-01 1.278253e+01 135 135 111
-9.640017e-01 6.353096e-01 9.486491e+00 97 102 85
-9.183265e-01 6.239460e-01 9.523034e+00 58 62 56
-3.693874e-01 -3.389673e-01 1.248508e+01 130 121 121
-8.659011e-01 6.622825e-01 9.415325e+00 99 99 100
-1.650269e-01 -1.660282e-01 1.157432e+01 168 164 162
-6.962077e-01 7.277037e-01 9.203866e+00 176 176 184
-5.465471e-01 6.120347e-01 9.465120e+00 77 73 65
-4.660223e-01 6.245945e-01 9.411455e+00 54 66 75
-7.727831e-01 1.133747e+00 7.864513e+00 102 106 90
-4.537649e-01 6.361355e-01 9.420878e+00 146 147 133
-2.640384e+00 1.649218e+00 1.048028e+01 139 147 162
-2.357172e+00 1.629228e+00 1.048870e+01 144 123 113
-3.305122e+00 2.097397e+00 1.051166e+01 156 127 124
-2.562553e+00 1.794978e+00 1.037888e+01 155 120 118
5.529890e-01 1.121530e+00 7.672975e+00 164 155 141
5.442046e-01 1.142331e+00 7.610544e+00 117 110 108
1.366176e+00 5.742737e-01 9.144039e+00 91 103 59
-2.632666e+00 1.950125e+00 1.062113e+01 146 135 145
-2.631976e+00 1.950056e+00 1.062132e+01 146 135 145
1.491399e+00 5.853125e-01 9.038882e+00 84 95 52
-2.698659e+00 2.084608e+00 1.084991e+01 141 113 99
-2.700267e+00 2.082500e+00 1.087422e+01 144 114 104
-2.618814e+00 1.559690e+00 1.038432e+01 158 157 162
