ply
format ascii 1.0
element face 0
property list uchar int vertex_indices
element vertex 949
property float x
property float y
property float z
property uchar diffuse_red
property uchar diffuse_green
property uchar diffuse_blue
end_header
-1.234957e+00 5.900571e-01 9.516786e+00 43 68 101
-1.377392e+00 6.153744e-01 9.461095e+00 183 183 186
-9.979543e-01 6.985037e-01 9.110427e+00 89 109 141
-5.178178e+00 4.216061e-01 1.070487e+01 49 44 28
-2.610157e+00 8.019092e-01 1.060216e+01 109 83 60
-2.597902e+00 8.903234e-01 1.062677e+01 44 35 26
-5.249273e+00 5.151681e-01 1.060723e+01 147 148 129
-3.739288e+00 6.641737e-01 9.811345e+00 166 163 147
-5.230819e+00 5.441480e-01 1.054684e+01 105 98 65
-1.643489e+00 8.838196e-01 8.660684e+00 142 158 182
-4.091681e+00 7.043874e-01 9.752850e+00 109 109 109
-9.406347e-01 1.020146e+00 8.012553e+00 187 196 208
-4.242845e+00 7.409504e-01 9.682746e+00 128 124 122
-8.882131e-01 1.044005e+00 7.881084e+00 110 137 155
-2.504455e+00 1.175949e+00 1.060709e+01 100 89 76
-2.445975e+00 1.126459e+00 8.131566e+00 174 184 193
-5.015585e+00 9.049357e-01 9.391477e+00 88 76 42
-6.529802e+00 8.715762e-01 9.428331e+00 65 56 46
-2.533035e+00 1.486142e+00 1.080650e+01 47 43 34
-2.533035e+00 1.486142e+00 1.080650e+01 47 43 34
-2.488537e+00 1.538949e+00 1.074099e+01 68 65 57
-2.371482e+00 1.575672e+00 1.047465e+01 56 53 38
-2.365913e+00 1.575146e+00 1.048981e+01 56 53 38
-2.544590e+00 1.545966e+00 1.083451e+01 72 64 53
-2.539444e+00 1.546022e+00 1.084557e+01 72 64 53
-2.487289e+00 1.666331e+00 1.076771e+01 49 46 35
-2.800921e+00 1.672857e+00 1.082763e+01 67 57 45
-2.445976e+00 1.717035e+00 1.071711e+01 59 59 43
-2.445976e+00 1.717035e+00 1.071711e+01 59 59 43
-2.450785e+00 1.772019e+00 1.075371e+01 52 48 37
-2.423537e+00 1.792990e+00 1.068916e+01 64 62 53
-2.288702e+00 1.898981e+00 1.041356e+01 61 58 46
-1.559958e+00 1.320808e-01 1.112882e+01 164 160 148
-2.110981e+00 1.196762e-01 1.139997e+01 147 151 129
-2.321052e+00 1.037103e-01 1.147590e+01 58 47 74
-2.321052e+00 1.037103e-01 1.147590e+01 58 47 74
-3.230478e+00 8.208548e-03 1.177970e+01 142 143 128
-2.627031e+00 1.403780e-01 1.140265e+01 68 56 80
-7.394212e-01 2.407538e-01 1.041324e+01 38 37 37
-8.641243e-01 2.312879e-01 1.047411e+01 46 40 70
-3.091364e+00 1.009761e-01 1.151142e+01 56 46 58
-8.898079e-01 2.371640e-01 1.046612e+01 42 35 48
-1.913574e+00 2.255168e-01 1.092297e+01 191 190 176
-8.641692e-01 2.696543e-01 1.034920e+01 39 33 54
-8.641692e-01 2.696543e-01 1.034920e+01 39 33 54
-2.126910e+00 2.199214e-01 1.102252e+01 52 43 83
-1.854913e+00 2.549307e-01 1.078183e+01 127 117 108
-1.390577e+00 2.861935e-01 1.052816e+01 48 39 63
-9.276947e-01 3.350516e-01 1.016829e+01 154 157 133
-1.167500e+00 3.450778e-01 1.022857e+01 36 29 50
-1.267764e+00 3.596437e-01 1.025520e+01 34 28 34
-1.365349e+00 3.594131e-01 1.028426e+01 36 32 56
-1.618327e+00 4.153071e-01 1.019299e+01 170 164 151
-3.486268e+00 3.127097e-01 1.096889e+01 113 103 112
-7.647513e-01 5.142151e-01 9.595123e+00 106 108 111
-9.285563e-01 4.964672e-01 9.617255e+00 63 71 74
-9.834570e-01 5.036654e-01 9.676400e+00 96 101 95
-1.008747e+00 5.134987e-01 9.670803e+00 38 42 51
-1.382665e+00 4.931955e-01 9.883294e+00 40 40 51
-9.833744e-01 5.179193e-01 9.657945e+00 44 48 54
-7.513230e-01 5.330180e-01 9.521763e+00 111 117 116
-1.599169e+00 4.787884e-01 9.966039e+00 47 42 66
-6.533457e-01 5.522401e-01 9.431791e+00 165 166 157
-9.449382e-01 5.534246e-01 9.525800e+00 117 119 110
-8.755565e-01 5.864218e-01 9.417801e+00 39 53 80
-8.633503e-01 6.096302e-01 9.346345e+00 70 77 90
-1.291907e+00 5.862396e-01 9.524583e+00 48 67 103
-2.520838e+00 5.529814e-01 1.028524e+01 27 24 22
-1.138025e+00 6.505374e-01 9.284912e+00 161 163 167
-4.724594e+00 3.698756e-01 1.096486e+01 33 33 32
-1.056605e+00 6.679684e-01 9.175423e+00 146 150 169
-1.387734e+00 6.524043e-01 9.363972e+00 98 113 136
-8.758021e-01 7.946380e-01 8.719678e+00 142 141 149
-2.538057e+00 8.662651e-01 1.051392e+01 108 84 55
-2.478791e+00 8.943765e-01 1.040338e+01 115 90 69
-3.635750e+00 6.750648e-01 9.837476e+00 167 159 150
-3.835592e+00 6.557572e-01 9.893045e+00 84 82 81
-2.413352e+00 9.287156e-01 1.032521e+01 115 93 66
-1.257804e+00 9.398490e-01 8.356485e+00 115 136 165
-1.257553e+00 9.384121e-01 8.361460e+00 115 136 165
-2.319119e+00 9.646682e-01 1.012121e+01 70 58 54
-2.319119e+00 9.646682e-01 1.012121e+01 70 58 54
-1.144457e+00 9.495473e-01 8.321552e+00 132 148 176
-2.268881e+00 1.000339e+00 9.991209e+00 70 56 45
-2.521549e+00 1.038786e+00 1.059246e+01 68 54 43
-3.784365e+00 8.255882e-01 9.361523e+00 176 170 159
-3.978136e+00 8.646897e-01 9.256964e+00 175 169 161
-5.383470e+00 7.460091e-01 9.844041e+00 74 79 49
-2.587434e+00 1.176264e+00 1.075901e+01 73 56 42
-2.587434e+00 1.176264e+00 1.075901e+01 73 56 42
-2.587434e+00 1.176264e+00 1.075901e+01 73 56 42
-7.302386e-01 1.303537e+00 7.125990e+00 132 135 158
-2.678462e+00 1.216213e+00 1.078508e+01 64 55 48
-5.269511e+00 9.142946e-01 9.373815e+00 168 164 153
-6.583952e+00 8.309287e-01 9.528922e+00 107 96 78
-6.216110e+00 8.735307e-01 9.440624e+00 114 102 74
-2.488337e+00 1.295826e+00 1.062541e+01 70 57 42
-2.359141e+00 1.327873e+00 1.037890e+01 71 53 40
-6.579525e+00 8.915609e-01 9.374056e+00 113 101 78
-2.266084e+00 1.350312e+00 1.013273e+01 60 51 37
-2.266084e+00 1.350312e+00 1.013273e+01 60 51 37
-5.204444e+00 1.053077e+00 8.902467e+00 116 118 49
-6.588325e+00 9.233446e-01 9.453229e+00 58 47 33
-6.758778e+00 9.282619e-01 9.295696e+00 116 105 83
-6.518178e+00 9.584355e-01 9.357426e+00 113 103 78
-2.387239e+00 1.393470e+00 1.044163e+01 72 57 42
-6.792979e+00 9.802620e-01 9.335094e+00 119 103 87
-2.539066e+00 1.392276e+00 1.075223e+01 70 67 58
-2.510888e+00 1.403029e+00 1.072440e+01 55 52 43
-6.933156e+00 1.007474e+00 9.120686e+00 113 100 84
-2.560345e+00 1.411868e+00 1.081283e+01 87 84 72
-2.560345e+00 1.411868e+00 1.081283e+01 87 84 72
-2.468168e+00 1.425098e+00 1.062860e+01 47 43 31
-2.464133e+00 1.425661e+00 1.063838e+01 47 43 31
-6.831847e+00 1.042928e+00 9.011137e+00 115 106 80
-2.532647e+00 1.426751e+00 1.075455e+01 25 20 7
-2.532647e+00 1.426751e+00 1.075455e+01 25 20 7
-2.651318e+00 1.431964e+00 1.086337e+01 29 30 28
-2.559439e+00 1.476135e+00 1.082749e+01 58 52 40
-2.450712e+00 1.497154e+00 1.061241e+01 58 54 43
-2.313028e+00 1.546311e+00 1.033444e+01 60 53 37
-2.391657e+00 1.529647e+00 1.052369e+01 56 54 39
-2.451003e+00 1.526055e+00 1.066566e+01 58 54 43
-2.392609e+00 1.560380e+00 1.051128e+01 61 61 49
-2.399008e+00 1.558240e+00 1.053993e+01 67 63 54
-7.498755e+00 1.286719e+00 8.410258e+00 112 100 83
-2.320458e+00 1.601250e+00 1.040422e+01 63 58 48
-2.524333e+00 1.581569e+00 1.082702e+01 75 73 61
-2.524333e+00 1.581569e+00 1.082702e+01 75 73 61
-2.374689e+00 1.659462e+00 1.054010e+01 59 54 44
-2.546091e+00 1.622168e+00 1.086348e+01 19 19 19
-2.544549e+00 1.622341e+00 1.086678e+01 19 19 19
-2.440583e+00 1.656855e+00 1.067400e+01 43 41 31
-2.440583e+00 1.656855e+00 1.067400e+01 43 41 31
-2.548039e+00 1.633582e+00 1.088376e+01 53 46 37
-2.241501e+00 1.708057e+00 1.027308e+01 64 61 49
-2.514538e+00 1.650716e+00 1.081566e+01 51 50 40
-2.498818e+00 1.656128e+00 1.080621e+01 67 65 53
-2.498818e+00 1.656128e+00 1.080621e+01 67 65 53
-2.639415e+00 1.637753e+00 1.092478e+01 41 38 22
-2.639415e+00 1.637753e+00 1.092478e+01 41 38 22
-2.518635e+00 1.677389e+00 1.084714e+01 79 75 64
-2.518635e+00 1.677389e+00 1.084714e+01 79 75 64
-2.487467e+00 1.726477e+00 1.079447e+01 45 41 30
-2.487467e+00 1.726477e+00 1.079447e+01 45 41 30
-2.473551e+00 1.733951e+00 1.077182e+01 53 50 41
-2.473551e+00 1.733951e+00 1.077182e+01 53 50 41
-7.932846e+00 1.801214e+00 6.934613e+00 91 83 65
-2.412150e+00 1.768577e+00 1.064817e+01 69 65 53
-2.272988e+00 1.815171e+00 1.037071e+01 62 58 47
-2.464502e+00 1.770211e+00 1.076046e+01 63 63 53
-2.295077e+00 1.835896e+00 1.041578e+01 59 55 45
-2.295077e+00 1.835896e+00 1.041578e+01 59 55 45
-2.404989e+00 1.801139e+00 1.065474e+01 68 69 54
-2.404989e+00 1.801139e+00 1.065474e+01 68 69 54
-2.811436e+00 1.755225e+00 1.084110e+01 23 26 25
-2.252673e+00 1.854800e+00 1.034620e+01 59 55 44
-2.494318e+00 1.785490e+00 1.083340e+01 70 67 55
-2.229184e+00 1.867136e+00 1.030667e+01 59 52 46
-2.229184e+00 1.867136e+00 1.030667e+01 59 52 46
-2.340697e+00 1.837092e+00 1.052811e+01 44 40 29
-2.668516e+00 1.766424e+00 1.093730e+01 71 67 55
-2.310310e+00 1.852059e+00 1.048420e+01 59 55 45
-2.310310e+00 1.852059e+00 1.048420e+01 59 55 45
-2.259430e+00 1.890098e+00 1.033382e+01 53 49 38
-2.169787e+00 9.876048e-02 1.145527e+01 133 141 90
-2.411806e+00 9.779278e-02 1.150961e+01 81 67 89
-2.372892e+00 1.044963e-01 1.148109e+01 134 138 113
-2.479009e+00 1.113464e-01 1.147752e+01 78 65 91
-2.022857e+00 1.794102e-01 1.115451e+01 80 70 100
-1.957848e+00 1.850611e-01 1.109719e+01 116 104 132
-1.786488e+00 2.027329e-01 1.097239e+01 130 120 130
-2.098322e+00 2.037931e-01 1.108304e+01 160 160 133
-2.091041e+00 2.121488e-01 1.103596e+01 64 54 89
-1.651250e+00 2.382830e-01 1.077657e+01 110 100 104
-1.133946e+00 2.964605e-01 1.036550e+01 159 160 139
-1.704959e+00 2.744743e-01 1.067644e+01 137 129 119
-1.435552e+00 3.158781e-01 1.041690e+01 53 48 74
-3.039884e+00 2.208013e-01 1.119206e+01 142 137 133
-1.260233e+00 3.652591e-01 1.023092e+01 40 38 57
-1.394769e+00 3.912107e-01 1.017107e+01 162 161 142
-1.767265e+00 3.753720e-01 1.036728e+01 89 88 120
-1.426557e+00 4.116041e-01 1.012589e+01 43 41 64
-1.704927e+00 4.247960e-01 1.017824e+01 65 63 71
-1.563647e+00 4.459510e-01 1.006516e+01 58 55 70
-1.634097e+00 4.471465e-01 1.008456e+01 48 36 38
-1.009706e+00 5.029263e-01 9.704257e+00 121 122 111
-6.967482e-01 5.333849e-01 9.487524e+00 60 78 94
-7.852482e-01 5.280490e-01 9.535901e+00 132 129 125
-8.296402e-01 5.294549e-01 9.545339e+00 95 103 101
-9.098403e-01 5.353652e-01 9.583288e+00 53 49 56
-1.118461e+00 5.204937e-01 9.662340e+00 47 62 75
-5.103980e-01 5.626915e-01 9.307814e+00 161 169 160
-1.101508e+00 5.424255e-01 9.634851e+00 68 55 54
-1.209201e+00 5.389260e-01 9.670644e+00 60 64 61
-1.258785e+00 5.682384e-01 9.594873e+00 145 77 86
-1.097996e+00 5.879824e-01 9.500268e+00 53 64 81
-6.377369e-01 6.214606e-01 9.210163e+00 163 166 161
-6.386108e-01 6.240683e-01 9.218229e+00 163 166 161
-7.080660e-01 6.202078e-01 9.249356e+00 61 81 110
-9.295502e-01 6.123777e-01 9.358839e+00 48 67 95
-7.252031e-01 6.416229e-01 9.213443e+00 112 116 131
-3.884404e+00 4.007504e-01 1.075225e+01 180 175 176
-1.172768e+00 6.163795e-01 9.409398e+00 130 132 144
-2.508239e+00 5.607281e-01 1.027141e+01 27 24 24
-2.499045e+00 5.655182e-01 1.025645e+01 26 22 25
-1.005680e+00 6.427027e-01 9.258645e+00 120 128 135
-2.437501e+00 6.126712e-01 1.017787e+01 101 76 58
-8.642830e-01 6.839476e-01 9.092604e+00 97 115 129
-2.406613e+00 6.299675e-01 1.019489e+01 101 76 61
-2.413845e+00 7.543751e-01 1.019723e+01 73 55 45
-2.413845e+00 7.543751e-01 1.019723e+01 73 55 45
-2.578081e+00 8.270725e-01 1.056487e+01 54 42 35
-2.510217e+00 8.303730e-01 1.042806e+01 83 67 64
-2.510217e+00 8.303730e-01 1.042806e+01 83 67 64
-3.932424e+00 5.808550e-01 1.014517e+01 161 156 144
-2.446661e+00 8.635883e-01 1.033080e+01 59 53 48
-4.600370e+00 5.540479e-01 1.036681e+01 163 165 148
-2.556707e+00 8.778789e-01 1.054443e+01 65 51 38
-1.736290e+00 8.057829e-01 8.913966e+00 137 140 148
-5.351413e+00 5.140135e-01 1.050168e+01 149 144 125
-2.468222e+00 9.171105e-01 1.037448e+01 71 63 53
-2.348413e+00 9.506432e-01 1.019244e+01 65 51 38
-2.304496e+00 9.772290e-01 1.005570e+01 67 58 51
-2.329334e+00 1.025410e+00 1.017767e+01 55 42 33
-2.329334e+00 1.025410e+00 1.017767e+01 55 42 33
-1.091501e+00 1.042604e+00 8.015214e+00 184 194 205
-1.161798e+00 1.036056e+00 8.015799e+00 189 195 201
-1.161910e+00 1.053274e+00 8.003263e+00 93 132 168
-1.144855e+00 1.058687e+00 7.961495e+00 100 132 155
-2.537688e+00 1.121472e+00 1.064863e+01 52 43 35
-2.537688e+00 1.121472e+00 1.064863e+01 52 43 35
-2.281310e+00 1.210262e+00 1.013214e+01 68 60 41
-2.316863e+00 1.277510e+00 1.024650e+01 71 54 39
-2.316863e+00 1.277510e+00 1.024650e+01 71 54 39
-1.371686e+00 1.325812e+00 7.190389e+00 135 136 145
-1.371686e+00 1.325812e+00 7.190389e+00 135 136 145
-6.573851e+00 8.200001e-01 9.564866e+00 65 56 47
-2.568258e+00 1.296798e+00 1.075913e+01 77 63 50
-6.307726e+00 8.855836e-01 9.369366e+00 71 64 51
-2.731590e+00 1.286911e+00 1.076910e+01 69 60 50
-2.426614e+00 1.326249e+00 1.052755e+01 65 52 42
-6.622081e+00 9.120321e-01 9.366899e+00 107 102 82
-2.644295e+00 1.342731e+00 1.084517e+01 101 95 73
-5.919591e+00 1.041847e+00 8.909492e+00 103 93 71
-6.121240e+00 1.057205e+00 8.838713e+00 122 108 85
-6.884465e+00 9.902749e-01 9.130962e+00 109 103 79
-6.642561e+00 1.065461e+00 8.948434e+00 115 107 88
-2.423557e+00 1.448059e+00 1.056433e+01 43 38 26
-2.423557e+00 1.448059e+00 1.056433e+01 43 38 26
-2.401387e+00 1.461929e+00 1.050532e+01 77 72 61
-2.401387e+00 1.461929e+00 1.050532e+01 77 72 61
-6.725030e+00 1.104119e+00 8.947785e+00 116 104 83
-2.489230e+00 1.474658e+00 1.071822e+01 56 53 43
-2.489230e+00 1.474658e+00 1.071822e+01 56 53 43
-2.319578e+00 1.507415e+00 1.037098e+01 65 61 51
-2.254276e+00 1.582545e+00 1.019498e+01 75 69 54
-2.254276e+00 1.582545e+00 1.019498e+01 75 69 54
-7.535347e+00 1.257818e+00 8.652577e+00 113 99 80
-2.333793e+00 1.589460e+00 1.044270e+01 63 61 49
-2.403347e+00 1.586954e+00 1.054961e+01 51 50 39
-2.270784e+00 1.628534e+00 1.029686e+01 66 63 52
-2.838016e+00 1.561798e+00 1.077023e+01 105 89 71
-2.761737e+00 1.592769e+00 1.083526e+01 64 60 50
-2.418029e+00 1.638204e+00 1.062060e+01 52 49 40
-2.695650e+00 1.603480e+00 1.088334e+01 68 62 54
-2.302063e+00 1.672933e+00 1.038755e+01 57 56 48
-2.750894e+00 1.661807e+00 1.085845e+01 47 42 29
-7.743373e+00 1.709588e+00 7.181936e+00 107 90 82
-2.288556e+00 1.776391e+00 1.037127e+01 54 51 42
-2.395611e+00 1.750872e+00 1.060222e+01 48 44 38
-7.597447e+00 1.815950e+00 6.792040e+00 106 90 74
-2.435839e+00 1.782358e+00 1.072199e+01 57 53 44
-2.353579e+00 1.832070e+00 1.054638e+01 65 61 50
-2.368699e+00 1.858288e+00 1.059442e+01 53 53 44
-2.275719e+00 1.937866e+00 1.040041e+01 26 32 29
-2.162746e+00 1.031157e-01 1.145262e+01 61 51 52
-1.543420e+00 2.411351e-01 1.074744e+01 92 84 96
-8.437380e-01 2.685549e-01 1.035100e+01 64 59 75
-1.815897e+00 9.899639e-02 1.041305e+01 150 140 139
-1.787951e+00 3.790159e-01 1.036113e+01 98 97 104
-1.198673e+00 5.034173e-01 9.752124e+00 127 136 126
-9.243091e-01 5.250779e-01 9.578475e+00 107 109 95
-9.678994e-01 5.488735e-01 9.523190e+00 76 77 90
-7.490228e-01 5.899951e-01 9.383085e+00 80 89 98
-1.167839e+00 5.587039e-01 9.583808e+00 89 96 102
-8.913039e-01 5.783260e-01 9.417689e+00 76 84 92
-2.467445e+00 5.563079e-01 1.020291e+01 28 28 23
-2.452623e+00 5.641383e-01 1.017429e+01 26 26 23
-2.474949e+00 5.812501e-01 1.026318e+01 31 29 30
-2.437054e+00 5.736085e-01 1.018017e+01 28 25 20
-3.968895e+00 5.902593e-01 1.009559e+01 158 153 140
-4.561101e+00 5.526009e-01 1.036339e+01 86 77 98
-1.841138e+00 7.923519e-01 9.025744e+00 148 156 162
-2.575617e+00 8.992794e-01 1.062025e+01 101 85 68
-2.575617e+00 8.992794e-01 1.062025e+01 101 85 68
-3.623941e+00 6.699645e-01 9.851749e+00 167 160 150
-2.553277e+00 9.135465e-01 1.056447e+01 58 41 27
-5.307032e+00 5.134557e-01 1.049192e+01 135 135 51
-4.726591e+00 5.848635e-01 1.028815e+01 163 152 133
-4.726591e+00 5.848635e-01 1.028815e+01 163 152 133
-1.165572e+00 9.204715e-01 8.402442e+00 119 151 176
-5.431831e+00 5.476090e-01 1.040686e+01 121 115 98
-9.605783e-01 1.017933e+00 7.998225e+00 107 146 174
-8.528018e-01 1.031558e+00 7.956842e+00 137 158 179
-9.487069e-01 1.047377e+00 7.949367e+00 174 181 199
-2.323766e+00 9.305872e-01 8.728010e+00 197 203 218
-8.959538e-01 1.074634e+00 7.871451e+00 180 182 183
-8.879403e-01 1.085050e+00 7.847734e+00 124 137 126
-4.319751e+00 7.923903e-01 9.499541e+00 167 160 142
-1.086421e+00 1.095268e+00 7.838870e+00 125 147 161
-1.744543e+00 1.135419e+00 7.928261e+00 117 133 145
-1.886860e+00 1.158721e+00 7.886420e+00 106 116 133
-1.912911e+00 1.175481e+00 7.812630e+00 108 123 147
-1.999942e+00 1.198899e+00 7.810571e+00 153 177 213
-2.551160e+00 1.144578e+00 8.052878e+00 194 194 209
-8.924779e-01 1.348369e+00 6.989756e+00 178 178 180
-2.517301e+00 1.284711e+00 1.069161e+01 98 80 58
-2.517301e+00 1.284711e+00 1.069161e+01 98 80 58
-4.097275e-01 1.073309e+00 -1.804399e+01 178 176 180
-1.424667e+00 1.398795e+00 6.882139e+00 165 173 194
-4.669401e+00 1.105514e+00 8.598031e+00 168 168 157
-4.673165e+00 1.236069e+00 8.187397e+00 124 112 78
-5.968999e+00 1.143198e+00 8.515532e+00 116 107 85
-5.968999e+00 1.143198e+00 8.515532e+00 116 107 85
-5.870724e+00 1.218147e+00 8.270216e+00 85 75 47
-5.870724e+00 1.218147e+00 8.270216e+00 85 75 47
-6.595698e+00 1.157662e+00 8.645075e+00 116 105 85
-5.369179e+00 1.344169e+00 7.815266e+00 105 98 80
-7.282017e-01 1.850648e+00 5.174535e+00 85 79 65
-9.097874e-01 1.888018e+00 5.125456e+00 96 81 53
-6.734538e+00 1.395682e+00 7.927688e+00 79 72 51
-2.728923e+00 1.576458e+00 1.085599e+01 21 21 15
-2.408564e+00 1.636974e+00 1.059788e+01 54 55 43
-7.656539e+00 1.442706e+00 7.989633e+00 114 106 87
-2.489527e+00 1.692619e+00 1.078943e+01 67 65 53
-2.499900e+00 1.717991e+00 1.081346e+01 67 62 52
-2.498875e+00 1.717370e+00 1.081570e+01 67 62 52
-9.012034e+00 1.691957e+00 7.365383e+00 95 80 78
-2.421059e+00 1.761349e+00 1.067204e+01 62 56 41
-2.728481e+00 1.742777e+00 1.089519e+01 26 25 21
-2.217833e+00 1.971763e+00 1.027855e+01 28 26 13
-7.915630e-01 2.178875e-01 1.049951e+01 74 74 50
-1.093760e+00 3.804125e-01 1.008243e+01 24 26 18
-1.405803e+00 4.120972e-01 1.013926e+01 72 65 78
-3.591247e+00 2.687039e-01 1.109123e+01 154 155 123
-1.604587e+00 4.468631e-01 1.008947e+01 157 153 141
-1.202378e+00 4.980589e-01 9.818420e+00 95 102 94
-1.535387e+00 4.826816e-01 9.947900e+00 155 162 123
-9.161111e-01 5.415703e-01 9.559404e+00 120 85 83
-8.605273e-01 5.510005e-01 9.509476e+00 116 93 107
-1.014927e+00 5.453721e-01 9.592673e+00 107 51 48
-8.311411e-01 5.620394e-01 9.492271e+00 83 92 105
-8.969020e-01 5.611710e-01 9.490947e+00 92 102 104
-1.261941e+00 5.490408e-01 9.657273e+00 88 90 87
-1.270450e+00 5.540547e-01 9.632012e+00 134 130 127
-1.252542e+00 6.269418e-01 9.406638e+00 160 159 169
-1.335009e+00 6.232420e-01 9.446935e+00 176 175 180
-1.114460e+00 6.586161e-01 9.268287e+00 147 154 171
-8.559653e-01 7.002781e-01 9.035057e+00 87 111 146
-1.437629e+00 6.993782e-01 9.314632e+00 101 117 139
-1.702035e+00 7.117536e-01 9.250963e+00 165 166 168
-5.169398e+00 4.437715e-01 1.066625e+01 103 106 60
-2.496280e+00 8.683047e-01 1.046752e+01 49 35 25
-2.496280e+00 8.683047e-01 1.046752e+01 49 35 25
-2.602775e+00 8.886724e-01 1.066141e+01 99 84 67
-4.045216e+00 6.098157e-01 1.006243e+01 157 148 134
-5.372203e+00 4.846067e-01 1.056336e+01 80 75 28
-1.758448e+00 8.156807e-01 8.932892e+00 115 126 140
-3.639713e+00 6.602040e-01 9.848091e+00 76 77 77
-4.084028e+00 6.535031e-01 9.920271e+00 55 55 56
-2.598018e+00 9.500333e-01 1.067696e+01 38 33 27
-2.816438e+00 9.346757e-01 1.062416e+01 121 108 95
-3.900412e+00 6.985884e-01 9.766040e+00 75 66 74
-1.275758e+00 9.384327e-01 8.375570e+00 179 192 210
-1.296428e+00 9.446479e-01 8.364967e+00 167 176 196
-2.370343e+00 1.000771e+00 1.026176e+01 97 83 63
-2.370343e+00 1.000771e+00 1.026176e+01 97 83 63
-4.182868e+00 7.253737e-01 9.722817e+00 76 78 71
-5.404723e+00 6.201067e-01 1.022534e+01 110 88 90
-3.813652e+00 7.899481e-01 9.457833e+00 172 167 153
-2.385789e+00 9.355741e-01 8.717984e+00 133 146 169
-7.398967e-01 1.090804e+00 7.742893e+00 132 156 162
-4.292643e+00 7.811346e-01 9.590208e+00 152 144 130
-1.144143e+00 1.072229e+00 7.942562e+00 171 177 182
-5.640590e+00 6.636644e-01 1.011067e+01 98 85 53
-9.721865e-01 1.105170e+00 7.761567e+00 128 136 147
-8.437276e-01 1.119559e+00 7.695031e+00 132 149 155
-8.828421e-01 1.131589e+00 7.685335e+00 131 153 161
-4.063672e+00 8.428922e-01 9.328563e+00 159 155 143
-4.063672e+00 8.428922e-01 9.328563e+00 159 155 143
-4.100569e+00 8.427238e-01 9.296048e+00 161 159 145
-9.189615e-01 1.142485e+00 7.664455e+00 127 149 160
-9.189615e-01 1.142485e+00 7.664455e+00 127 149 160
-1.972987e+00 1.063269e+00 8.139865e+00 105 114 131
-1.666535e+00 1.097159e+00 8.005259e+00 126 140 152
-5.440498e+00 7.456724e-01 9.876105e+00 150 153 110
-1.000656e+00 1.167329e+00 7.626440e+00 148 169 181
-2.176132e+00 1.056803e+00 8.230853e+00 190 191 199
-1.671832e+00 1.107710e+00 7.982790e+00 183 190 193
-1.691384e+00 1.108966e+00 7.953926e+00 113 121 134
-2.002472e+00 1.082239e+00 8.148012e+00 183 190 198
-1.674709e+00 1.118344e+00 7.951632e+00 136 148 162
-5.332305e+00 7.793477e-01 9.882188e+00 116 118 96
-1.709701e+00 1.121054e+00 7.926068e+00 115 129 150
-8.653365e-01 1.214177e+00 7.451066e+00 152 153 171
-2.268601e+00 1.087461e+00 8.195838e+00 121 134 144
-1.764497e+00 1.138640e+00 7.897461e+00 186 192 203
-2.405201e+00 1.107578e+00 8.168961e+00 118 129 143
-1.034844e+00 1.304192e+00 7.200751e+00 131 129 131
-2.542068e+00 1.389546e+00 1.077274e+01 25 22 14
-2.436938e+00 1.500110e+00 1.061847e+01 21 20 8
-2.274098e+00 1.562487e+00 1.023823e+01 78 74 63
-2.427150e+00 1.573653e+00 1.062506e+01 20 20 12
-2.480205e+00 1.578320e+00 1.071819e+01 21 19 6
-2.469493e+00 1.672453e+00 1.073183e+01 21 21 10
-6.335925e+00 1.830890e+00 6.420437e+00 76 70 59
-2.350201e+00 1.769806e+00 1.052788e+01 20 21 13
4.638291e+00 5.504846e+00 -7.582915e+00 8 8 8
8.468713e+00 6.022390e+00 -7.627774e+00 18 22 26
8.572454e+00 7.618830e+00 -6.712994e+00 44 27 34
-1.355443e+00 7.367598e-02 1.125137e+01 148 146 141
-2.812881e+00 4.500409e-01 1.050897e+01 20 19 19
5.037006e+00 1.117337e+01 -1.410666e+01 252 254 250
-2.675439e+00 1.546620e+00 1.087950e+01 18 19 16
8.526609e+00 6.336173e+00 -7.326838e+00 255 254 251
3.556478e+00 1.260131e+01 -2.098393e+01 171 177 199
-2.643589e+00 1.388250e+00 1.085443e+01 92 82 57
-2.048518e+00 2.419326e-01 1.085005e+01 62 63 75
5.056750e+00 5.974919e+00 -7.606180e+00 12 17 19
-1.383470e+00 6.421153e-01 9.342265e+00 87 91 100
-3.656598e+00 8.373776e-01 9.346479e+00 109 114 133
-2.651363e+00 1.242758e+00 1.080702e+01 94 84 66
-2.841693e+00 1.249237e+00 1.069522e+01 33 30 29
-2.607040e+00 1.698385e+00 1.096201e+01 45 46 31
-2.731855e+00 5.701797e-02 1.170271e+01 138 134 121
-4.064477e+00 7.679394e-01 9.720040e+00 157 154 145
-2.843750e+00 1.093624e+00 1.063128e+01 94 84 59
-1.733239e-01 1.086279e+00 7.571123e+00 97 95 77
-2.709738e+00 1.343775e+00 1.080251e+01 42 36 36
-2.730375e+00 1.432308e+00 1.081898e+01 32 27 21
-2.641348e+00 1.500963e+00 1.088781e+01 31 26 21
-2.776923e+00 1.645014e+00 1.085161e+01 57 55 42
-2.771732e+00 1.796170e+00 1.089856e+01 17 14 7
-2.799741e+00 1.801458e+00 1.088131e+01 18 16 10
-2.784670e+00 9.297191e-01 1.064141e+01 60 53 42
-2.784245e+00 9.295595e-01 1.064012e+01 60 53 42
-2.828479e+00 9.328854e-01 1.062325e+01 94 84 58
-3.938329e+00 8.363248e-01 9.451348e+00 155 153 143
-1.580124e+00 8.514980e-01 8.660312e+00 162 180 204
-2.861163e+00 1.122810e+00 1.065363e+01 88 83 65
-2.832554e+00 1.214684e+00 1.068816e+01 38 29 26
-2.670186e+00 1.221677e+00 1.078296e+01 92 84 61
-2.753742e+00 1.621825e+00 1.084836e+01 20 18 12
-8.344906e-02 1.012289e+01 -2.174074e+01 23 25 28
-1.101359e+01 1.033503e+01 -1.964117e+01 151 153 167
-1.590268e+01 1.516174e+01 -2.271139e+01 209 202 218
-2.038947e+01 1.175068e+01 -1.476031e+01 37 41 53
4.236465e+00 1.022547e+01 -2.355851e+01 28 30 25
4.605663e+00 1.079241e+01 -1.981573e+01 24 24 24
-1.724489e+01 6.895895e+00 -5.934552e+00 5 8 6
2.953196e+00 1.217373e+01 -2.007034e+01 110 95 103
5.634046e+00 1.035017e+01 -1.983405e+01 129 118 107
-2.714360e+00 1.053031e+00 1.071572e+01 67 57 50
-3.896768e+00 9.485291e-01 9.043531e+00 97 100 113
-2.719175e+00 1.373184e+00 1.080968e+01 99 92 71
-7.085153e-01 2.725111e-01 1.030684e+01 168 168 171
6.876745e+00 5.418078e+00 -7.026056e+00 131 117 144
6.880381e+00 5.419649e+00 -7.034278e+00 131 117 144
-4.053681e+00 2.306273e+00 1.119209e+01 14 31 32
-2.754596e+00 1.292571e+00 1.076650e+01 63 53 43
-2.713623e+00 1.562650e+00 1.087240e+01 54 51 40
-2.804215e+00 1.115434e+00 1.068607e+01 61 51 39
-1.214381e+00 6.000924e-01 9.484912e+00 176 173 178
-5.573584e+00 1.274862e+00 8.028399e+00 110 102 82
-8.151022e+00 5.284021e+00 3.051983e+00 94 88 89
-2.655856e+00 1.215122e+00 1.079826e+01 103 94 76
-2.339325e+00 1.080768e+00 8.133613e+00 120 124 133
-1.771826e+00 -5.602800e-01 8.155014e+00 133 139 113
-2.667926e+00 6.575397e-01 1.006720e+01 98 80 59
-1.408515e+01 6.962350e+00 -8.076278e+00 7 7 7
-1.727586e+01 5.582645e+00 -1.858788e+00 7 7 5
-1.739650e+01 6.092265e+00 -2.355831e+00 53 60 66
-7.701476e+00 1.726059e+00 7.023498e+00 97 89 75
-1.287485e+01 3.200568e+00 3.866240e+00 83 80 74
-3.510419e+00 2.102530e-02 1.181208e+01 27 22 26
-3.510419e+00 2.102530e-02 1.181208e+01 27 22 26
-1.414165e+00 4.504749e-01 1.001041e+01 169 167 158
-1.282723e+01 3.488264e+00 4.026192e+00 25 26 30
-1.911714e+00 2.321297e-01 1.090397e+01 194 194 184
-8.223927e+00 2.115215e+00 5.950665e+00 108 99 82
-1.662280e+00 2.334382e-01 1.081490e+01 184 181 167
-2.581059e+00 1.294791e+00 1.078782e+01 55 38 30
-2.581059e+00 1.294791e+00 1.078782e+01 55 38 30
-2.394992e+00 1.845926e+00 1.062088e+01 58 52 43
-5.658979e+00 8.758442e+00 -1.628936e+01 129 125 147
-1.690694e+01 5.462707e+00 -2.133131e+00 94 84 81
-7.916214e-01 5.037662e-01 1.078346e+01 154 154 150
-1.437792e+00 6.635952e-01 9.330939e+00 105 117 137
-2.541175e+00 1.118987e+00 1.063528e+01 59 49 41
-2.531695e+00 1.456715e+00 1.077942e+01 50 47 38
-2.531695e+00 1.456715e+00 1.077942e+01 50 47 38
-2.275926e+00 1.567604e+00 1.023352e+01 83 75 64
-2.339951e+00 1.838061e+00 1.053033e+01 44 40 29
-1.412196e+00 3.954071e-01 1.018940e+01 47 44 60
-7.284712e-01 6.292991e-01 9.230026e+00 53 74 101
-2.396714e+00 5.917270e-01 1.007635e+01 28 26 22
-2.493126e+00 8.698623e-01 1.042068e+01 66 56 46
-2.492967e+00 9.034931e-01 1.044193e+01 62 50 36
-2.492967e+00 9.034931e-01 1.044193e+01 62 50 36
-2.483227e+00 9.063624e-01 1.042607e+01 42 28 20
-2.589759e+00 1.095800e+00 1.070285e+01 76 64 46
-2.254773e+00 1.640579e+00 1.025516e+01 71 64 56
-2.387301e+00 1.814212e+00 1.060070e+01 35 35 25
-5.507630e-01 5.812614e-01 9.282233e+00 139 145 136
-1.254565e+00 5.852535e-01 9.525895e+00 94 107 117
-2.404763e+00 8.839417e-01 1.022967e+01 71 58 47
-2.232273e+00 1.936990e+00 1.028977e+01 57 56 44
-1.608600e+00 4.206187e-01 1.017498e+01 91 90 99
-1.401172e+00 4.979879e-01 9.864167e+00 168 165 173
-1.239796e+00 5.473947e-01 9.636924e+00 94 92 100
-8.748085e-01 6.851676e-01 9.059029e+00 116 133 151
-6.826116e-01 7.540783e-01 8.827371e+00 121 130 151
-1.004562e+00 9.993052e-01 8.119051e+00 186 194 207
-1.472969e+00 -5.624115e-02 1.162120e+01 131 127 118
-1.468812e+00 -5.788290e-02 1.161661e+01 131 127 118
-1.692421e+00 -1.034351e-02 1.155876e+01 137 133 122
-2.151715e+00 5.844653e-02 1.145880e+01 141 137 122
-1.942560e+00 4.686722e-02 1.142449e+01 141 138 123
-1.374882e+00 7.810321e-02 1.119283e+01 144 140 131
7.386787e-01 5.256483e-01 9.153185e+00 79 87 48
-1.739205e+00 -6.073150e-02 1.170512e+01 110 112 101
-1.743592e+00 -5.767958e-02 1.171077e+01 110 112 101
-1.662543e+00 -5.350118e-02 1.168283e+01 131 127 116
-1.725783e+00 -3.461498e-02 1.168931e+01 133 129 118
-1.745903e+00 -3.152574e-02 1.165729e+01 134 128 116
-1.892552e+00 -8.652743e-03 1.157936e+01 136 130 116
-1.950121e+00 1.398208e-02 1.158096e+01 138 136 121
-1.590005e+00 -2.916267e-02 1.159031e+01 134 131 121
-1.590005e+00 -2.916267e-02 1.159031e+01 134 131 121
-1.946913e+00 3.813251e-02 1.149149e+01 141 135 121
-2.107173e+00 8.471301e-02 1.139247e+01 144 138 122
-1.195497e+00 2.640640e-03 1.136652e+01 37 24 33
-1.195497e+00 2.640640e-03 1.136652e+01 37 24 33
-1.374441e+00 1.000085e-01 1.111599e+01 60 52 69
-8.267589e-01 2.030302e-01 1.068040e+01 143 139 127
-7.924683e-01 1.900468e-01 1.063515e+01 143 139 127
-2.978925e+00 1.137611e-01 1.158624e+01 13 11 12
-1.832326e+00 -1.397407e-02 1.162960e+01 135 133 107
-1.549196e+00 -4.294859e-02 1.158447e+01 132 128 117
-1.653588e+00 -1.360203e-02 1.156637e+01 136 132 121
-1.776022e+00 7.585812e-03 1.150144e+01 137 132 119
-1.830577e+00 2.740531e-02 1.151978e+01 140 134 121
-1.861495e+00 2.752692e-02 1.145387e+01 141 138 120
-2.027596e+00 7.241057e-02 1.142001e+01 145 139 123
-2.151538e+00 9.367212e-02 1.135887e+01 148 142 127
-2.288211e+00 1.355903e-01 1.136612e+01 151 148 131
-5.802451e-01 1.554297e-01 1.078907e+01 137 137 129
-5.802451e-01 1.554297e-01 1.078907e+01 137 137 129
-9.758679e-01 2.360188e-01 1.061726e+01 151 144 134
-6.229189e-01 2.438888e-01 1.037478e+01 143 139 128
-7.874204e-01 2.833072e-01 1.031852e+01 149 146 134
-1.181386e-01 3.747831e-01 9.818526e+00 53 53 45
5.087022e-01 5.633020e-01 9.152582e+00 53 52 24
1.010253e+00 6.534330e-01 8.819672e+00 54 63 21
-1.772660e+00 -5.260685e-02 1.169882e+01 132 128 116
-2.650547e+00 9.065679e-02 1.157015e+01 146 140 123
-1.511492e+00 -5.663221e-02 1.163622e+01 131 127 115
-2.063076e+00 7.693772e-02 1.140230e+01 142 139 123
-2.180635e+00 1.045400e-01 1.136708e+01 148 142 130
-1.988642e+00 8.174565e-02 1.138145e+01 18 14 13
-1.988642e+00 8.174565e-02 1.138145e+01 18 14 13
-2.191018e+00 1.165528e-01 1.134641e+01 29 26 21
-1.525638e+00 2.064505e-01 1.084193e+01 167 168 173
-3.961115e+00 6.149199e-01 1.017987e+01 105 101 124
-7.081954e-01 2.618399e-01 1.035428e+01 146 142 130
-7.081954e-01 2.618399e-01 1.035428e+01 146 142 130
-1.242763e+00 4.108446e-01 1.005690e+01 177 176 185
-5.400872e-02 4.055676e-01 9.758982e+00 89 86 69
-3.197379e-04 4.583021e-01 9.590220e+00 112 112 95
6.345762e-01 6.564523e-01 8.917380e+00 43 49 32
-2.786858e+00 1.572992e+00 1.082964e+01 12 12 10
-1.587711e+00 -9.091303e-02 1.174710e+01 126 123 111
-2.265680e+00 1.311511e-02 1.167590e+01 136 134 117
-1.651183e+00 -7.060187e-02 1.170399e+01 18 15 16
-1.878413e+00 -2.175267e-02 1.164130e+01 24 20 25
-1.865115e+00 -1.042359e-02 1.163252e+01 134 131 115
-1.594212e+00 -4.950296e-02 1.164190e+01 130 126 115
-1.594212e+00 -4.950296e-02 1.164190e+01 130 126 115
-2.804760e+00 1.351124e-01 1.148541e+01 30 25 32
-2.935179e+00 1.515592e-01 1.147011e+01 19 14 21
-1.558944e+00 -3.791818e-02 1.163025e+01 132 129 117
-2.190041e+00 4.892352e-02 1.154697e+01 137 133 121
-1.774578e+00 -5.207253e-03 1.158568e+01 135 128 117
-1.913972e+00 2.442179e-02 1.152807e+01 137 134 120
-1.463442e+00 -3.688866e-02 1.154953e+01 21 19 21
-1.621236e+00 -7.233531e-03 1.154679e+01 16 13 15
-1.683152e+00 4.623749e-03 1.151705e+01 14 14 13
-2.097353e+00 6.827085e-02 1.146299e+01 141 136 117
-1.602742e+00 -2.067970e-03 1.151309e+01 16 14 16
-1.667306e+00 1.294057e-02 1.148961e+01 15 13 17
-2.100319e+00 7.721956e-02 1.143455e+01 22 17 29
-1.733509e+00 2.760307e-02 1.146582e+01 17 16 16
-2.085940e+00 9.836021e-02 1.136659e+01 15 15 15
-2.014800e+00 1.773514e-01 1.109437e+01 165 159 159
-1.455443e+00 1.868746e-01 1.081248e+01 165 164 172
-1.570855e+00 2.113264e-01 1.080297e+01 165 168 175
-1.669967e+00 2.407209e-01 1.074592e+01 166 164 177
-3.887031e+00 5.893802e-01 1.022129e+01 92 90 96
-3.889467e+00 5.841466e-01 1.018666e+01 92 90 96
-5.112954e-01 1.813237e-01 1.059134e+01 139 136 124
-8.695532e-01 2.577038e-01 1.042629e+01 148 146 133
-8.773933e-01 2.590514e-01 1.043731e+01 148 146 133
-4.447781e-01 2.200179e-01 1.048409e+01 32 32 28
-4.952469e-01 2.281108e-01 1.045993e+01 116 112 102
-1.096821e+00 3.030412e-01 1.034137e+01 164 166 169
-3.701227e+00 6.480643e-01 9.961371e+00 157 151 140
-6.873689e-01 2.871634e-01 1.033162e+01 23 22 27
-9.546645e-01 3.702795e-01 1.009936e+01 85 98 127
-9.623112e-01 3.750227e-01 1.011233e+01 85 98 127
-1.305153e+00 4.204094e-01 1.004331e+01 178 176 181
-1.379850e+00 4.547489e-01 9.974124e+00 85 99 130
-2.472322e-01 3.305594e-01 1.013245e+01 141 137 126
3.065413e-01 4.614006e-01 9.471931e+00 64 66 50
4.378629e-01 5.649418e-01 9.058228e+00 57 60 42
4.136364e-01 5.974241e-01 9.020661e+00 111 105 83
-3.367092e+00 1.050171e+00 8.618700e+00 156 165 179
-2.652416e+00 1.318122e+00 1.083944e+01 79 63 47
-2.804614e+00 1.554795e+00 1.081006e+01 91 78 57
-2.975538e+00 1.045861e-01 1.161649e+01 139 137 116
-3.024850e+00 1.104933e-01 1.160742e+01 24 22 27
-1.617676e+00 -9.283263e-02 1.177575e+01 29 24 24
-2.368876e+00 2.575736e-02 1.166606e+01 134 133 114
-2.533413e+00 5.256574e-02 1.163602e+01 143 137 120
-1.633388e+00 -7.487362e-02 1.173247e+01 28 24 27
-1.674067e+00 -7.062520e-02 1.172130e+01 128 125 111
-2.520170e+00 5.830852e-02 1.162089e+01 142 141 119
-2.676663e+00 9.039976e-02 1.158151e+01 42 36 32
-1.471806e+00 -8.161307e-02 1.168937e+01 123 123 104
-2.658879e+00 9.960319e-02 1.155015e+01 51 41 52
-1.454079e+00 -7.760653e-02 1.168333e+01 33 24 25
-1.669932e+00 -3.917431e-02 1.163653e+01 17 15 15
-1.574512e+00 -4.711017e-02 1.164289e+01 27 21 28
-1.606809e+00 -3.854742e-02 1.163068e+01 26 22 33
-1.983634e+00 1.252594e-02 1.157705e+01 28 22 28
-1.653463e+00 -2.722062e-02 1.160435e+01 19 16 20
-1.391422e+00 -6.681320e-02 1.161834e+01 23 19 17
-2.201187e+00 5.703394e-02 1.153303e+01 25 20 29
-1.381950e+00 -5.913899e-02 1.159805e+01 28 21 27
-1.800647e+00 1.397440e-03 1.154451e+01 22 20 21
-2.919546e+00 1.697360e-01 1.140553e+01 46 33 63
-1.591637e+00 -1.417801e-02 1.155840e+01 17 16 14
-2.695782e+00 1.558409e-01 1.139661e+01 150 145 111
-1.811671e+00 3.626631e-02 1.146844e+01 18 14 17
-2.206922e+00 1.057373e-01 1.137286e+01 145 139 124
-2.206922e+00 1.057373e-01 1.137286e+01 145 139 124
-2.027361e+00 8.354454e-02 1.139240e+01 29 25 45
-2.136377e+00 1.020171e-01 1.138346e+01 142 138 119
-1.949058e+00 7.475759e-02 1.138698e+01 21 19 25
-2.119476e+00 1.049121e-01 1.135388e+01 18 18 20
-1.253562e+00 2.090644e-02 1.134812e+01 29 25 27
-1.415472e+00 5.229732e-02 1.128196e+01 139 136 126
-1.994536e+00 1.699932e-01 1.110368e+01 58 64 98
-1.631051e+00 1.541495e-01 1.101752e+01 164 165 171
-1.495845e+00 1.995365e-01 1.083586e+01 164 165 170
-1.517173e+00 1.954019e-01 1.077215e+01 167 168 173
-1.959201e+00 2.727305e-01 1.069602e+01 156 156 155
-4.210573e-01 1.477902e-01 1.064257e+01 132 133 127
-4.077230e-01 1.584425e-01 1.065760e+01 136 135 122
-5.523825e-01 1.879688e-01 1.059982e+01 140 135 129
-5.411435e-01 1.853722e-01 1.058623e+01 140 135 129
-1.664460e+00 3.320037e-01 1.043712e+01 166 165 170
-1.761381e+00 3.467779e-01 1.043609e+01 171 166 167
-8.677553e-01 2.516986e-01 1.048275e+01 144 142 129
-3.830837e+00 6.783528e-01 9.888512e+00 159 157 153
-3.665038e+00 6.671233e-01 9.918236e+00 156 152 144
-1.638446e+00 4.250813e-01 1.013826e+01 163 164 168
-9.500125e-01 3.424908e-01 1.019783e+01 76 93 117
-1.662600e-01 3.891863e-01 9.836388e+00 27 27 27
-6.301757e-02 4.295059e-01 9.715797e+00 88 85 65
-2.795708e+00 9.091918e-01 1.062372e+01 23 23 20
2.269123e-01 4.500600e-01 9.546505e+00 129 122 109
-3.411047e+00 9.794520e-01 8.844664e+00 187 188 200
4.360365e-01 5.865354e-01 9.024825e+00 111 105 82
3.204824e-01 6.137900e-01 9.058368e+00 112 106 78
4.249886e-01 6.156705e-01 8.958603e+00 35 41 26
5.445386e-01 6.698827e-01 8.801714e+00 50 55 40
-2.848941e+00 1.379967e+00 1.074599e+01 97 81 64
-2.703126e+00 1.785686e+00 1.093512e+01 12 12 9
-2.347131e+00 2.420433e-02 1.167366e+01 130 131 100
-1.563838e+00 -9.040696e-02 1.174250e+01 53 32 54
-1.567430e+00 -8.810030e-02 1.174666e+01 53 32 54
-1.473322e+00 -8.667914e-02 1.171657e+01 33 24 22
-1.504029e+00 -7.577457e-02 1.169575e+01 120 120 95
-2.037621e+00 3.254659e-03 1.162505e+01 27 22 14
-1.481575e+00 -7.494299e-02 1.168052e+01 28 23 27
-2.735814e+00 1.159410e-01 1.152582e+01 145 142 128
-1.829627e+00 -1.392297e-02 1.159670e+01 20 19 17
-1.797016e+00 -1.206837e-02 1.159461e+01 23 21 18
-1.628212e+00 -3.629520e-02 1.161419e+01 28 25 26
-1.909192e+00 1.684860e-02 1.156066e+01 20 19 14
-1.640761e+00 -2.203667e-02 1.158417e+01 36 28 36
-1.767848e+00 4.237040e-03 1.153835e+01 27 27 28
-2.057295e+00 5.058363e-02 1.150180e+01 21 19 18
-1.908667e+00 3.618949e-02 1.148079e+01 31 26 27
-2.680393e+00 1.542828e-01 1.138770e+01 52 41 60
-2.331205e+00 1.066251e-01 1.142233e+01 74 70 60
-2.308609e+00 1.191556e-01 1.139244e+01 152 148 135
-1.993850e+00 9.222782e-02 1.136635e+01 142 139 129
-2.101778e+00 1.163570e-01 1.132666e+01 39 30 60
-1.017979e+00 1.462333e-02 1.126157e+01 26 23 18
-9.930624e-01 2.246399e-02 1.126146e+01 38 29 33
-1.093900e+00 4.100932e-02 1.124709e+01 136 133 119
-1.092556e+00 4.281154e-02 1.122169e+01 129 132 103
-1.830551e+00 1.536807e-01 1.108989e+01 69 72 102
-1.800269e+00 1.857571e-01 1.097270e+01 75 82 103
-1.404016e+00 1.653235e-01 1.090818e+01 72 79 102
-1.565082e+00 2.330886e-01 1.072066e+01 79 90 118
-4.548572e+00 6.320564e-01 1.024590e+01 149 140 140
-4.830782e-01 1.696240e-01 1.066976e+01 138 134 128
-1.338088e+00 2.772473e-01 1.050198e+01 164 164 172
-4.499254e-01 1.723261e-01 1.063973e+01 107 101 105
-1.727466e+00 3.439745e-01 1.041500e+01 163 161 166
-1.724799e+00 3.442523e-01 1.041331e+01 163 161 166
-7.065153e-01 2.209806e-01 1.055095e+01 146 139 130
-1.708814e+00 3.481184e-01 1.036625e+01 76 85 112
-8.574296e-01 2.693854e-01 1.040266e+01 146 141 129
-1.401160e+00 3.632487e-01 1.027221e+01 96 109 136
-1.493770e+00 3.772390e-01 1.024130e+01 93 105 129
-4.148091e+00 7.442461e-01 9.791021e+00 107 109 122
-4.098944e+00 7.497651e-01 9.793011e+00 159 156 153
-3.973715e+00 7.440040e-01 9.780472e+00 162 158 157
-4.086057e+00 7.707771e-01 9.716633e+00 160 158 158
-4.288920e-01 3.409785e-01 1.012084e+01 145 137 125
-3.843218e+00 8.257048e-01 9.435382e+00 173 172 170
-1.760131e-01 4.354702e-01 9.735319e+00 45 46 32
-3.931130e+00 8.929684e-01 9.265833e+00 178 182 182
-3.906774e+00 8.952368e-01 9.232345e+00 121 127 152
-3.906868e+00 8.944900e-01 9.233048e+00 121 127 152
6.900514e-02 4.201674e-01 9.730026e+00 28 33 30
2.043946e-01 4.330520e-01 9.577589e+00 44 37 28
2.321470e-01 4.949308e-01 9.454036e+00 76 83 62
2.794464e-01 5.744625e-01 9.212728e+00 143 133 126
9.032989e-01 5.529477e-01 9.031368e+00 47 56 23
8.643708e-01 5.627982e-01 9.070987e+00 47 56 23
-2.834911e+00 1.248827e+00 1.070472e+01 30 24 19
-2.834911e+00 1.248827e+00 1.070472e+01 30 24 19
-9.642678e-01 9.839949e-01 8.064076e+00 157 150 141
-2.673390e+00 1.275795e+00 1.080327e+01 36 27 25
-9.314830e-01 1.090005e+00 7.689970e+00 76 85 38
-2.823503e+00 1.340390e+00 1.073734e+01 36 29 24
-8.413726e-01 1.308407e+00 6.960501e+00 154 143 141
-2.695682e+00 1.637288e+00 1.089529e+01 16 16 14
-1.650920e+00 -8.593225e-02 1.176415e+01 42 30 40
-2.284046e+00 8.447611e-03 1.168890e+01 119 124 83
-1.604041e+00 -8.076513e-02 1.174408e+01 47 34 43
-2.804592e+00 1.398729e-01 1.146965e+01 140 137 126
-1.399029e+00 -6.336884e-02 1.160961e+01 124 117 108
-1.418207e+00 -5.660824e-02 1.160988e+01 116 123 86
-1.418207e+00 -5.660824e-02 1.160988e+01 116 123 86
-1.504299e+00 -4.462762e-02 1.159781e+01 114 123 87
-1.276048e+00 2.467400e-02 1.133804e+01 125 132 91
-1.011204e+00 5.305259e-03 1.128238e+01 129 125 105
-1.422165e+00 1.055526e-01 1.111767e+01 51 51 82
-1.408247e+00 1.087103e-01 1.111967e+01 145 140 131
-1.505108e+00 1.242674e-01 1.108568e+01 48 50 65
-1.857245e+00 1.967859e-01 1.095401e+01 76 82 110
-1.837668e+00 1.920084e-01 1.094091e+01 161 165 163
-1.827586e+00 1.987085e-01 1.093752e+01 79 90 120
-8.596297e-01 7.842264e-02 1.101586e+01 29 29 24
-1.442689e+00 1.651337e-01 1.092008e+01 65 70 95
-1.340636e+00 1.765982e-01 1.084114e+01 74 81 93
-4.681956e+00 6.028475e-01 1.034407e+01 114 94 88
-1.842047e+00 2.534321e-01 1.074266e+01 158 157 161
-1.621948e+00 2.419400e-01 1.070626e+01 160 162 165
-1.693138e+00 2.506295e-01 1.069203e+01 77 85 107
-5.291731e-01 1.129280e-01 1.082565e+01 44 37 43
-5.455231e-01 1.184688e-01 1.084427e+01 44 37 43
-1.752931e+00 2.680499e-01 1.065132e+01 160 160 165
-6.971798e-01 1.465185e-01 1.078058e+01 140 137 124
-1.913632e+00 3.013074e-01 1.055872e+01 149 150 162
-9.184934e-01 1.892451e-01 1.067567e+01 142 141 117
-4.553359e-01 1.466289e-01 1.071895e+01 42 43 46
-4.553359e-01 1.466289e-01 1.071895e+01 42 43 46
-4.078837e-01 1.728444e-01 1.062914e+01 42 43 42
-7.984664e-01 2.215391e-01 1.054226e+01 141 141 124
-3.537537e-01 1.668831e-01 1.059864e+01 50 44 52
-3.537537e-01 1.668831e-01 1.059864e+01 50 44 52
-8.184914e-01 2.253484e-01 1.052460e+01 145 138 120
-4.322117e-01 1.842563e-01 1.059555e+01 47 46 54
-4.956187e-01 1.963376e-01 1.053961e+01 42 41 45
-6.228619e-01 2.231608e-01 1.051349e+01 41 37 40
-4.205979e+00 6.732153e-01 1.001546e+01 152 145 139
-1.129350e+00 2.950375e-01 1.040222e+01 79 83 110
-8.427786e-01 2.692524e-01 1.041006e+01 42 40 45
-3.816912e+00 6.634583e-01 9.934366e+00 114 113 122
-2.773677e+00 6.326308e-01 1.056110e+01 62 54 42
-2.773677e+00 6.326308e-01 1.056110e+01 62 54 42
-4.040417e+00 7.004967e-01 9.889277e+00 85 83 96
-4.040816e+00 7.005731e-01 9.903103e+00 85 83 96
-4.129034e+00 7.379055e-01 9.779750e+00 98 102 109
-4.129034e+00 7.379055e-01 9.779750e+00 98 102 109
-1.515446e+00 4.191082e-01 1.012044e+01 168 168 173
-4.194425e+00 7.519250e-01 9.743837e+00 92 88 102
-1.513603e+00 4.248220e-01 1.009932e+01 86 96 124
-1.120673e+00 3.805043e-01 1.015504e+01 96 108 131
-1.636862e+00 4.470413e-01 1.006282e+01 75 83 109
-1.636862e+00 4.470413e-01 1.006282e+01 75 83 109
-3.560926e-01 3.212454e-01 1.014419e+01 141 133 125
-4.521624e-01 3.456641e-01 1.005026e+01 145 137 124
-4.248137e+00 8.232333e-01 9.572793e+00 152 150 138
-3.901624e+00 8.417220e-01 9.411718e+00 172 173 170
-1.386825e+00 5.353455e-01 9.711620e+00 162 158 155
-4.006636e+00 8.730267e-01 9.386897e+00 172 174 171
-3.849882e+00 8.495113e-01 9.380603e+00 174 174 174
-1.200175e-01 3.963953e-01 9.844608e+00 32 33 23
-3.871793e+00 8.525278e-01 9.360231e+00 175 177 175
-4.044151e+00 8.819874e-01 9.367769e+00 174 174 174
-1.589021e-01 4.035905e-01 9.825952e+00 69 69 51
-3.981466e+00 8.675930e-01 9.332464e+00 136 141 155
-1.736225e-01 4.083081e-01 9.815626e+00 24 22 20
-1.103719e+00 5.162810e-01 9.641742e+00 165 163 171
-3.868284e+00 8.633825e-01 9.326102e+00 128 133 152
-4.025291e+00 8.866274e-01 9.325480e+00 126 136 153
-3.971125e+00 8.781641e-01 9.301065e+00 180 180 182
-3.602294e+00 8.355607e-01 9.358502e+00 166 166 160
-1.125230e-01 4.393423e-01 9.683372e+00 24 23 28
4.754288e-02 4.253562e-01 9.700159e+00 28 31 29
-3.914824e+00 9.099350e-01 9.221156e+00 179 180 185
1.310045e-01 4.303367e-01 9.680844e+00 51 53 35
8.223337e-02 4.424585e-01 9.644709e+00 115 107 83
4.315241e-01 4.052886e-01 9.687836e+00 47 72 71
-3.332020e-02 4.597776e-01 9.614745e+00 125 122 106
-3.700450e+00 9.059721e-01 9.141829e+00 92 105 121
-3.666424e+00 9.075267e-01 9.163164e+00 100 99 122
-3.768102e+00 9.267865e-01 9.090133e+00 114 121 145
2.767007e-01 4.624204e-01 9.527208e+00 57 62 39
-3.195402e+00 9.423551e-01 8.862250e+00 112 124 152
-3.150868e+00 9.397825e-01 8.865442e+00 110 118 151
-3.281663e+00 9.566378e-01 8.844320e+00 191 194 209
-3.262515e+00 9.583912e-01 8.833121e+00 116 133 158
-3.347668e+00 9.712822e-01 8.819953e+00 186 191 203
-3.217485e+00 9.551398e-01 8.838149e+00 115 128 164
-3.689040e+00 1.020773e+00 8.783834e+00 82 95 105
-3.689040e+00 1.020773e+00 8.783834e+00 82 95 105
-3.643717e+00 1.018206e+00 8.773717e+00 86 87 113
-3.610069e+00 1.030149e+00 8.776135e+00 167 162 165
-2.671657e+00 1.065295e+00 1.074042e+01 27 23 22
-3.884860e+00 1.079750e+00 8.673920e+00 121 126 147
5.429213e-01 5.632500e-01 9.180653e+00 50 55 25
-2.821620e+00 1.088203e+00 1.066556e+01 98 86 63
7.552776e-01 5.431161e-01 9.174453e+00 39 43 20
-3.650983e+00 1.061329e+00 8.654160e+00 87 89 106
2.303893e-01 6.355540e-01 8.973871e+00 43 49 38
1.686592e-01 6.568009e-01 8.976098e+00 51 51 50
3.839846e-01 6.319130e-01 8.922162e+00 46 47 29
-4.097417e+00 1.166667e+00 8.460883e+00 160 166 201
2.790612e-01 6.776326e-01 8.815105e+00 52 55 53
-2.683468e+00 1.150598e+00 1.076151e+01 38 34 26
4.293259e-01 7.076233e-01 8.680571e+00 116 109 84
-1.107525e+00 1.032156e+00 7.941269e+00 74 95 104
-2.998916e+00 1.287209e+00 7.691552e+00 83 85 84
-2.998916e+00 1.287209e+00 7.691552e+00 83 85 84
-2.780383e+00 1.501847e+00 6.849733e+00 174 172 182
-8.200982e-01 1.291726e+00 6.981019e+00 154 146 144
-3.002021e+00 1.533480e+00 6.866255e+00 111 111 117
-2.969789e+00 1.552262e+00 6.812267e+00 120 125 131
-2.789497e+00 1.749101e+00 6.119126e+00 98 88 63
-2.827681e+00 1.515887e+00 1.078740e+01 42 35 25
-2.779172e+00 1.517632e+00 1.081730e+01 91 77 63
-2.673306e+00 1.769852e+00 1.094845e+01 17 15 17
-1.669084e+00 -8.672112e-02 1.176167e+01 61 49 53
-1.669084e+00 -8.672112e-02 1.176167e+01 61 49 53
-2.697906e+00 1.149236e-01 1.150863e+01 155 147 134
-1.963549e+00 8.024977e-02 1.138286e+01 126 123 102
-2.045225e+00 1.901997e-01 1.103464e+01 158 159 154
-7.784435e-01 6.083893e-02 1.106305e+01 37 28 28
-1.803314e+00 1.948292e-01 1.091409e+01 96 101 137
-4.401866e+00 5.322829e-01 1.052158e+01 62 51 49
-4.387003e+00 5.412519e-01 1.049806e+01 63 55 69
-4.518939e+00 5.687843e-01 1.043048e+01 88 79 74
-4.518939e+00 5.687843e-01 1.043048e+01 88 79 74
-1.823660e+00 2.423609e-01 1.076460e+01 86 93 120
-1.707954e+00 2.470091e-01 1.073141e+01 160 162 163
-6.297853e-01 1.256716e-01 1.082048e+01 41 40 35
-7.429865e-01 1.514427e-01 1.074893e+01 133 129 119
-6.961286e-01 1.575791e-01 1.076475e+01 141 139 128
-4.208917e-01 1.496034e-01 1.070509e+01 54 39 65
-1.729108e+00 3.211867e-01 1.048131e+01 70 82 107
-1.284330e+00 2.688368e-01 1.052233e+01 84 99 110
-4.469704e+00 6.745471e-01 1.010811e+01 149 145 147
-4.472497e+00 6.727380e-01 1.009881e+01 149 145 147
-4.011057e+00 6.127362e-01 1.014527e+01 75 72 89
-3.999701e+00 6.150335e-01 1.015198e+01 144 146 134
-4.161580e-01 1.656040e-01 1.064813e+01 33 36 29
-3.484864e-01 1.599635e-01 1.065094e+01 53 47 61
-3.945941e+00 6.107095e-01 1.017802e+01 84 79 102
-1.419461e+00 2.981723e-01 1.048305e+01 160 165 180
-8.119752e-01 2.178647e-01 1.054358e+01 40 36 32
-3.991306e+00 6.234250e-01 1.013447e+01 89 87 109
-3.661571e-01 1.693992e-01 1.057105e+01 56 54 53
-2.878948e+00 5.380079e-01 1.047945e+01 49 38 28
-5.195591e-01 2.001946e-01 1.052633e+01 41 39 36
-5.724349e-01 2.093517e-01 1.052836e+01 140 134 123
-4.402382e+00 7.087756e-01 9.964096e+00 86 88 102
-8.800970e-01 2.700517e-01 1.040929e+01 44 42 38
-1.194795e+00 3.106038e-01 1.037551e+01 164 167 178
-4.024026e+00 6.818264e-01 9.953941e+00 91 89 106
-4.059974e+00 6.959433e-01 9.908489e+00 149 146 138
-4.060903e+00 6.956432e-01 9.917732e+00 149 146 138
-2.870813e+00 6.545414e-01 1.051473e+01 57 54 37
-9.231409e-01 3.267378e-01 1.024223e+01 157 152 155
-1.412516e+00 3.899587e-01 1.017827e+01 90 96 121
-3.787390e+00 6.864613e-01 9.867030e+00 95 88 114
-3.880207e+00 7.103154e-01 9.831542e+00 91 96 112
-1.380590e+00 3.980897e-01 1.011501e+01 93 108 126
-1.218737e+00 3.825433e-01 1.013504e+01 101 116 137
-1.591901e+00 4.404409e-01 1.006724e+01 89 97 118
-1.085850e+00 3.777043e-01 1.011981e+01 170 176 184
-3.644191e+00 6.976999e-01 9.799487e+00 92 90 105
-1.555665e+00 4.820636e-01 9.883288e+00 158 160 158
-1.555665e+00 4.820636e-01 9.883288e+00 158 160 158
-1.494633e+00 4.855064e-01 9.899184e+00 162 166 171
-3.719426e+00 7.784005e-01 9.578769e+00 99 103 122
-3.808984e+00 8.114486e-01 9.494091e+00 131 136 152
-3.777421e+00 8.313345e-01 9.405140e+00 177 173 177
-3.602359e+00 8.210551e-01 9.376563e+00 80 85 99
-1.191245e-01 3.999102e-01 9.793330e+00 29 31 21
-3.752596e+00 8.570479e-01 9.303805e+00 99 112 125
4.810950e-02 4.041201e-01 9.786998e+00 40 41 30
-3.697901e+00 8.582538e-01 9.300719e+00 174 171 177
-1.376672e+00 5.885817e-01 9.520351e+00 98 98 96
-3.797438e+00 8.820826e-01 9.261217e+00 179 176 185
-1.467986e-02 4.425740e-01 9.666770e+00 34 38 39
-1.467986e-02 4.425740e-01 9.666770e+00 34 38 39
-4.022113e+00 9.240133e-01 9.152515e+00 115 124 144
-4.022113e+00 9.240133e-01 9.152515e+00 115 124 144
-3.628750e+00 8.868805e-01 9.178121e+00 87 91 99
-4.059137e+00 9.468693e-01 9.152424e+00 178 179 182
-2.884297e+00 9.471524e-01 1.059292e+01 97 85 69
3.751914e-02 4.527095e-01 9.595766e+00 45 42 30
2.229915e-02 4.544683e-01 9.615334e+00 45 42 30
-2.876456e+00 9.525821e-01 1.059721e+01 70 56 49
3.006852e-01 4.385598e-01 9.573925e+00 49 52 29
1.608793e-01 4.567393e-01 9.585286e+00 55 57 45
2.057299e-01 4.733821e-01 9.503669e+00 67 70 51
2.655328e-01 4.742794e-01 9.490231e+00 112 107 95
-3.549298e+00 9.955682e-01 8.812698e+00 89 97 117
-3.327694e+00 9.720397e-01 8.813144e+00 117 134 156
