ply
format ascii 1.0
element face 0
property list uchar int vertex_indices
element vertex 941
property float x
property float y
property float z
property uchar diffuse_red
property uchar diffuse_green
property uchar diffuse_blue
end_header
-2.438499e+00 1.123356e+00 9.876540e+00 32 32 30
-2.264534e+00 1.013027e+00 9.946446e+00 83 83 75
-2.586369e+00 1.076644e+00 9.964866e+00 168 154 141
-2.386565e+00 1.104473e+00 9.907426e+00 24 26 21
-2.700309e+00 9.625010e-01 1.013821e+01 160 137 111
-1.270485e+00 3.037694e-01 1.048120e+01 58 66 99
-5.371722e+00 4.337057e-01 1.133803e+01 80 98 55
-2.523613e+00 1.177036e+00 9.901531e+00 162 143 124
-2.251153e+00 1.051003e+00 9.966616e+00 34 34 31
-2.380802e+00 1.153033e+00 9.918882e+00 28 30 26
-2.384831e+00 1.173708e+00 9.912704e+00 71 69 55
-2.587608e+00 1.139435e+00 9.999496e+00 163 141 117
-2.362801e+00 1.157420e+00 9.936531e+00 63 65 54
-4.785764e+00 3.569741e-01 1.141845e+01 23 25 21
-1.286900e+00 2.416625e-01 1.068983e+01 46 50 68
-4.970567e+00 3.155683e-01 1.156455e+01 154 139 73
-2.493224e+00 1.281044e+00 9.908143e+00 88 42 46
-2.509333e+00 1.281002e+00 9.916683e+00 150 117 101
-4.943224e+00 2.958626e-01 1.161431e+01 89 85 46
-2.332979e+00 1.216703e+00 9.951984e+00 69 69 58
-6.418837e-01 2.109178e-01 1.063859e+01 64 69 100
-2.307196e+00 1.208576e+00 9.972409e+00 99 100 86
-2.425975e+00 1.277266e+00 9.932241e+00 68 66 57
-4.315599e+00 2.400165e-01 1.157512e+01 190 184 198
-2.599279e+00 1.236891e+00 1.005946e+01 113 94 80
-3.961247e-01 1.589920e-01 1.075844e+01 77 72 107
-2.586723e+00 1.298431e+00 1.005940e+01 162 150 133
-2.350161e+00 1.359518e+00 9.988587e+00 76 72 68
-1.440816e-01 7.299550e-02 1.098718e+01 169 175 159
-8.192760e-02 7.757144e-02 1.097912e+01 165 171 161
-1.577247e-01 8.269923e-02 1.101648e+01 177 176 181
-8.594681e-02 7.437448e-02 1.103536e+01 170 174 177
-5.004830e+00 3.530469e-02 1.250094e+01 164 176 185
-2.204148e+00 1.393599e+00 1.006953e+01 73 71 59
-2.375818e+00 1.492076e+00 1.000439e+01 31 35 31
-2.309352e+00 1.487644e+00 1.004349e+01 90 87 78
-2.220299e+00 1.444560e+00 1.008012e+01 69 69 58
-2.220758e+00 1.449626e+00 1.007289e+01 69 69 58
-3.311261e-01 -4.634876e-02 1.146350e+01 175 176 176
-7.247145e-01 -8.656734e-02 1.170020e+01 180 180 188
-3.970228e+00 -1.604250e-01 1.276523e+01 90 83 70
-1.451408e+00 -1.329146e-01 1.200682e+01 180 176 178
-3.462881e+00 -1.983325e-01 1.270347e+01 50 58 53
-5.925248e+00 -6.022061e-02 1.324897e+01 177 172 179
-4.348034e+00 -1.860093e-01 1.299400e+01 182 185 188
-5.769164e+00 -1.203029e-01 1.333737e+01 89 101 94
-9.689801e-01 -2.966216e-01 1.230201e+01 178 177 177
-2.206946e+00 1.662678e+00 1.013579e+01 76 77 63
-2.206066e+00 1.657351e+00 1.014455e+01 76 77 63
-1.210376e+00 -4.464128e-01 1.287910e+01 117 42 18
-5.818988e-01 -4.550905e-01 1.281421e+01 132 142 141
-2.184608e+00 1.706109e+00 1.017540e+01 79 77 70
-2.774292e+00 1.572140e+00 1.057593e+01 81 106 140
-4.698082e+00 -5.743148e-01 1.444882e+01 102 99 86
-2.319745e+00 1.816517e+00 1.011787e+01 84 81 72
-2.318739e+00 1.813230e+00 1.012221e+01 84 81 72
-2.187147e+00 1.772421e+00 1.018767e+01 31 32 26
-2.254411e+00 1.948700e+00 1.019122e+01 19 52 111
-2.297712e+00 1.998896e+00 1.017455e+01 19 52 103
-2.502810e+00 2.027196e+00 1.022905e+01 162 163 163
-2.518348e+00 2.050296e+00 1.026870e+01 39 33 37
-2.676426e+00 1.930846e+00 1.056986e+01 163 161 153
-2.662644e+00 1.980374e+00 1.056548e+01 153 150 153
-2.844854e+00 2.039562e+00 1.104565e+01 165 142 135
-2.833918e+00 2.047271e+00 1.104469e+01 65 62 53
3.162863e+00 -3.954254e+00 2.426406e+01 81 76 73
3.206400e+00 -3.824116e+00 2.417489e+01 80 73 71
3.206400e+00 -3.824116e+00 2.417489e+01 80 73 71
-3.476031e+00 1.022494e+00 8.829239e+00 136 155 96
-1.530997e+00 8.920108e-01 8.629351e+00 120 129 110
-3.482917e+00 1.019103e+00 8.839102e+00 60 65 69
-1.511747e+00 8.745115e-01 8.662114e+00 81 73 84
-1.500136e+00 8.632539e-01 8.672682e+00 123 132 107
-3.937883e+00 9.411227e-01 9.135345e+00 168 158 150
-3.507282e+00 8.857597e-01 9.256198e+00 170 168 132
-3.995687e+00 8.493034e-01 9.465858e+00 90 85 102
-1.209365e+00 6.760059e-01 9.203493e+00 119 123 105
-1.235729e+00 6.866015e-01 9.213220e+00 42 47 38
-4.069395e+00 7.306843e-01 9.906503e+00 178 171 162
-4.218430e+00 7.317286e-01 9.945531e+00 65 66 95
-2.542783e+00 6.599636e-01 9.733909e+00 87 79 67
-4.445764e+00 6.832763e-01 1.018596e+01 65 67 80
-2.447992e+00 7.183775e-01 9.780085e+00 43 44 38
-2.413889e+00 7.445369e-01 9.794310e+00 45 43 46
-2.343863e+00 7.051637e-01 9.830352e+00 123 124 109
-6.347123e-01 5.079821e-01 9.656577e+00 91 95 98
-2.400924e+00 8.021418e-01 9.824263e+00 94 94 83
-2.255288e+00 7.484650e-01 9.888131e+00 95 95 84
-2.255288e+00 7.484650e-01 9.888131e+00 95 95 84
-1.036292e+00 4.653943e-01 9.884974e+00 66 70 68
-1.030821e+00 4.734897e-01 9.888429e+00 126 133 110
-4.894180e+00 6.110240e-01 1.060925e+01 172 178 164
-2.341888e+00 8.725136e-01 9.857987e+00 39 39 39
-2.268158e+00 8.501909e-01 9.901108e+00 32 31 30
-2.296719e+00 8.708329e-01 9.886780e+00 58 58 50
-2.296719e+00 8.708329e-01 9.886780e+00 58 58 50
-2.626862e+00 8.861108e-01 9.958096e+00 160 152 135
-2.404402e+00 9.479532e-01 9.852179e+00 95 92 86
-4.612682e+00 5.493414e-01 1.073699e+01 41 43 50
-4.533532e+00 5.453361e-01 1.076697e+01 55 62 79
-2.344073e+00 9.593963e-01 9.879725e+00 38 36 37
-4.537152e+00 5.252618e-01 1.079610e+01 191 190 189
-2.340506e+00 9.801837e-01 9.901850e+00 86 88 76
-5.190707e+00 5.016460e-01 1.108882e+01 62 67 28
-1.247508e+00 3.494726e-01 1.033479e+01 174 174 186
-1.361381e+00 3.528806e-01 1.036432e+01 167 168 169
-2.420936e+00 1.095135e+00 9.891274e+00 85 87 73
-1.253975e+00 3.229746e-01 1.042574e+01 54 54 71
-5.053001e+00 4.216115e-01 1.123459e+01 37 32 13
-2.413984e+00 1.117665e+00 9.899492e+00 85 86 77
-2.355240e+00 1.086949e+00 9.920328e+00 87 88 73
-2.360524e+00 1.100192e+00 9.917407e+00 29 31 30
-2.360524e+00 1.100192e+00 9.917407e+00 29 31 30
-2.591370e+00 1.090343e+00 9.983141e+00 105 78 67
-2.304744e+00 1.076432e+00 9.942305e+00 67 68 55
-2.414700e+00 1.161442e+00 9.892454e+00 24 23 16
-2.414700e+00 1.161442e+00 9.892454e+00 24 23 16
-2.513272e+00 1.210895e+00 9.897332e+00 125 104 78
-9.740001e-01 2.634946e-01 1.055908e+01 64 67 86
-2.319785e+00 1.159375e+00 9.944683e+00 67 65 51
-1.883439e+00 2.236021e-01 1.088209e+01 106 110 115
-2.580758e+00 1.194636e+00 1.000804e+01 168 150 134
-2.509067e+00 1.263249e+00 9.915810e+00 117 84 64
-5.140231e+00 3.338808e-01 1.157987e+01 67 64 89
-2.620586e+00 1.160615e+00 1.006225e+01 171 147 126
-3.662082e+00 2.952850e-01 1.128510e+01 120 108 88
-1.571494e+00 2.056419e-01 1.087577e+01 52 54 64
-2.355793e+00 1.245585e+00 9.952108e+00 85 87 69
-2.355793e+00 1.245585e+00 9.952108e+00 85 87 69
-1.586808e+00 1.794952e-01 1.093857e+01 56 63 87
-2.285968e+00 1.216429e+00 9.974096e+00 25 25 20
-1.769181e+00 1.879825e-01 1.098070e+01 51 55 61
-1.705393e+00 1.644796e-01 1.102218e+01 48 52 61
-8.232541e-01 1.587884e-01 1.085774e+01 67 74 86
-8.232541e-01 1.587884e-01 1.085774e+01 67 74 86
-1.809147e+00 1.510076e-01 1.112962e+01 47 50 52
-1.466048e+00 1.383478e-01 1.106488e+01 174 173 173
-2.627369e+00 1.261777e+00 1.013366e+01 105 89 75
-2.394159e+00 1.370209e+00 9.970109e+00 92 94 83
-2.003369e-01 1.112776e-01 1.088386e+01 83 83 114
-2.030584e-01 1.138253e-01 1.088069e+01 83 83 114
-2.415125e+00 1.399969e+00 9.967520e+00 92 92 86
-1.828530e+00 7.638331e-02 1.141434e+01 174 178 162
-1.752249e+00 7.012350e-02 1.142319e+01 177 175 177
-1.354186e+00 4.424778e-02 1.135692e+01 59 69 63
2.684690e-02 6.995653e-02 1.096656e+01 80 75 82
-1.081969e-01 8.234428e-02 1.101499e+01 79 73 85
-5.034660e+00 1.007141e-01 1.235905e+01 133 148 169
-1.265031e+00 1.563537e-02 1.144096e+01 177 178 178
-3.523918e+00 -6.467086e-02 1.228213e+01 48 50 49
-4.324313e-02 3.534948e-03 1.122416e+01 89 83 85
-2.742997e+00 1.295427e+00 1.037530e+01 94 89 72
-9.097293e-01 -4.736288e-02 1.158539e+01 177 176 183
-9.097293e-01 -4.736288e-02 1.158539e+01 177 176 183
-3.487659e+00 -1.007219e-01 1.239573e+01 179 179 178
-3.490005e+00 -1.097526e-01 1.240896e+01 179 179 178
-3.331909e+00 -1.358836e-01 1.243223e+01 59 65 67
-5.127183e+00 -3.117805e-02 1.285088e+01 148 149 154
-2.039530e-01 -8.553543e-02 1.152814e+01 176 172 170
-2.039530e-01 -8.553543e-02 1.152814e+01 176 172 170
-3.590408e+00 -1.843824e-01 1.264737e+01 180 181 172
-2.333973e+00 1.558730e+00 1.003505e+01 80 83 75
-3.586270e+00 -1.768657e-01 1.269828e+01 183 187 191
-5.783602e+00 -1.054319e-01 1.331337e+01 173 171 177
-2.675308e+00 1.473946e+00 1.032117e+01 88 84 74
-2.357574e+00 1.603523e+00 1.005263e+01 89 89 80
-2.356477e+00 1.607017e+00 1.004862e+01 89 89 80
-5.508390e+00 -1.864717e-01 1.346838e+01 101 113 113
-4.003526e+00 -2.589686e-01 1.311229e+01 103 108 86
-3.581790e+00 -3.297820e-01 1.322812e+01 144 146 145
-2.018886e-01 -2.487028e-01 1.208859e+01 176 171 164
-2.351817e+00 1.713342e+00 1.008087e+01 82 80 69
-2.351817e+00 1.713342e+00 1.008087e+01 82 80 69
7.014547e-01 -4.104373e-01 1.215236e+01 94 86 79
-4.691620e+00 -4.383985e-01 1.408467e+01 181 181 188
-1.136357e+00 -5.239362e-01 1.312428e+01 55 68 36
-2.272891e+00 1.749388e+00 1.013590e+01 59 57 52
1.010336e+00 -5.202391e-01 1.245353e+01 67 62 59
-3.872110e+00 -6.171479e-01 1.428480e+01 151 155 156
-3.786321e+00 -6.412267e-01 1.433476e+01 144 145 147
-3.750553e+00 -6.828973e-01 1.441197e+01 149 151 150
-1.135107e+00 -6.485051e-01 1.349743e+01 154 150 145
-2.587154e+00 1.782904e+00 1.028057e+01 162 144 136
-2.587231e+00 1.784375e+00 1.027782e+01 162 144 136
-1.152146e+00 -6.629173e-01 1.356976e+01 150 148 143
-9.979411e-01 -6.690946e-01 1.355125e+01 151 146 142
-9.598414e-01 -6.518691e-01 1.353785e+01 157 153 150
-2.634347e+00 1.760243e+00 1.036262e+01 165 147 141
-2.404258e+00 1.957522e+00 1.010622e+01 83 77 53
-2.404258e+00 1.957522e+00 1.010622e+01 83 77 53
-3.312344e+00 1.097968e+00 8.819233e+00 143 152 132
-2.195509e+00 9.021622e-01 8.783294e+00 158 163 154
-2.200574e+00 9.166878e-01 8.785289e+00 129 125 149
-3.869668e+00 9.354664e-01 9.138151e+00 148 153 135
-3.818441e+00 9.275248e-01 9.185601e+00 71 76 101
-4.166230e+00 9.313769e-01 9.307825e+00 167 174 158
-3.636010e+00 8.858309e-01 9.254788e+00 148 160 123
-4.277299e+00 8.850284e-01 9.421434e+00 81 78 85
-4.251459e+00 8.768236e-01 9.439109e+00 79 76 105
-3.987918e+00 8.446380e-01 9.478155e+00 74 75 88
-4.085865e+00 8.467502e-01 9.495020e+00 154 158 136
-4.049188e+00 8.397155e-01 9.521433e+00 79 78 86
-4.420558e+00 8.320727e-01 9.640608e+00 165 149 163
-1.203150e+00 6.909353e-01 9.193294e+00 107 111 99
-4.300643e+00 7.474654e-01 9.913367e+00 56 65 70
-4.238176e+00 7.109818e-01 1.000982e+01 166 172 166
-4.125090e+00 7.044937e-01 1.000486e+01 180 177 185
-4.453244e+00 6.898478e-01 1.016773e+01 76 73 79
-2.648877e+00 7.070218e-01 9.945980e+00 152 133 119
-6.548031e-01 5.010146e-01 9.711199e+00 52 53 45
-2.584584e+00 8.200376e-01 9.862798e+00 168 136 116
-4.730826e+00 5.741891e-01 1.069901e+01 79 84 107
-4.719002e+00 5.640363e-01 1.071147e+01 77 79 93
-4.704193e+00 5.837462e-01 1.069144e+01 77 79 93
-2.347760e+00 9.065536e-01 9.880385e+00 97 96 83
-2.958215e+00 4.226528e-01 1.051149e+01 139 139 135
-2.389321e+00 9.706477e-01 9.869185e+00 95 93 81
-2.554045e+00 1.020532e+00 9.899115e+00 119 102 95
-2.354414e+00 9.870225e-01 9.887071e+00 92 92 81
-1.502394e+00 3.824528e-01 1.029760e+01 148 152 138
-2.279366e+00 9.625419e-01 9.936238e+00 34 35 29
-1.695450e+00 3.303805e-01 1.050876e+01 93 94 106
-1.695450e+00 3.303805e-01 1.050876e+01 93 94 106
-2.115841e-01 3.357691e-01 1.015924e+01 141 141 136
-1.669048e+00 3.173902e-01 1.052350e+01 66 70 95
-1.635978e+00 3.291063e-01 1.050539e+01 74 77 80
-1.634056e+00 3.217798e-01 1.051326e+01 74 77 80
-4.036695e+00 3.938283e-01 1.106727e+01 109 116 97
-1.684707e+00 2.947396e-01 1.061910e+01 86 88 98
-1.684606e+00 2.942250e-01 1.061960e+01 86 88 98
-3.998722e+00 3.937420e-01 1.107339e+01 91 88 93
-5.374336e+00 4.320167e-01 1.138844e+01 155 160 160
-2.506071e+00 1.209646e+00 9.891642e+00 162 146 125
-4.059640e+00 3.536181e-01 1.120845e+01 119 125 119
-1.750031e+00 2.494928e-01 1.076610e+01 109 109 111
-7.680984e-01 2.553192e-01 1.054271e+01 67 71 90
-9.707296e-01 2.329350e-01 1.062605e+01 179 183 194
-5.524532e+00 3.483036e-01 1.165595e+01 120 115 104
-5.474142e+00 3.409889e-01 1.166920e+01 107 98 100
-2.400952e+00 1.253027e+00 9.931405e+00 87 85 72
-2.401439e+00 1.260319e+00 9.922190e+00 87 85 72
-1.716688e+00 1.905126e-01 1.095490e+01 57 59 70
-9.753016e-01 1.741242e-01 1.083230e+01 174 178 180
-9.753016e-01 1.741242e-01 1.083230e+01 174 178 180
-5.197274e+00 2.635331e-01 1.181112e+01 167 162 161
-2.609765e+00 1.233212e+00 1.006938e+01 152 129 116
-5.771886e-01 1.757763e-01 1.074282e+01 169 171 168
-5.168976e+00 2.943520e-01 1.178701e+01 96 105 95
-1.566923e+00 1.516541e-01 1.103217e+01 57 61 56
-5.169311e+00 2.676468e-01 1.182813e+01 91 90 107
-2.948755e+00 8.090224e-01 1.064879e+01 163 157 148
-2.253800e+00 1.245238e+00 9.997158e+00 24 24 23
-1.511354e+00 1.417374e-01 1.105671e+01 60 68 80
-3.379560e-01 1.578785e-01 1.074828e+01 167 170 160
-2.580024e+00 1.292974e+00 1.004664e+01 109 93 66
-1.466148e+00 1.301993e-01 1.111246e+01 162 167 163
-4.863097e+00 2.040801e-01 1.194788e+01 89 94 94
-4.846491e+00 1.961756e-01 1.198297e+01 182 186 193
-4.549695e+00 1.308578e-01 1.201961e+01 177 179 192
-1.023757e+00 9.497546e-02 1.113149e+01 71 76 83
-1.023757e+00 9.497546e-02 1.113149e+01 71 76 83
-1.187898e+00 8.500050e-02 1.119937e+01 53 58 64
-4.223179e-02 9.854914e-02 1.087827e+01 66 64 74
-1.829495e+00 9.591650e-02 1.136452e+01 57 62 54
-1.115247e+00 4.416109e-02 1.129124e+01 187 187 188
-4.853858e-01 8.224196e-02 1.107433e+01 85 92 116
-1.370254e+00 6.601450e-02 1.133776e+01 65 74 81
-2.292452e+00 1.381790e+00 1.001428e+01 31 30 25
-4.656027e+00 4.359786e-02 1.233691e+01 154 148 150
-5.135930e+00 1.123341e-01 1.239082e+01 154 157 164
-5.636757e+00 1.206199e-01 1.254047e+01 117 118 120
-1.409132e+00 5.155077e-03 1.156292e+01 71 75 73
-1.329618e+00 -3.621869e-03 1.157683e+01 62 66 69
-5.656836e+00 2.326939e-02 1.278841e+01 129 129 128
-2.305845e+00 1.470720e+00 1.002996e+01 27 29 18
-9.045470e-01 -3.859610e-02 1.156253e+01 87 91 100
-5.334741e+00 -1.752918e-02 1.281201e+01 141 140 139
-3.545763e+00 -1.243425e-01 1.245648e+01 177 182 183
-3.339873e+00 -1.157715e-01 1.239526e+01 181 185 184
-3.513940e+00 -1.231999e-01 1.245845e+01 177 180 180
-5.210079e+00 -4.054599e-03 1.278945e+01 125 125 125
-5.044526e+00 -3.956529e-02 1.279150e+01 148 148 150
-3.517258e+00 -1.485879e-01 1.251126e+01 94 105 103
-1.125029e+00 -6.939756e-02 1.173280e+01 69 75 84
-1.485533e+00 -1.005211e-01 1.190025e+01 163 162 161
-4.794085e+00 -6.851915e-02 1.281793e+01 142 148 148
-4.808658e+00 -9.134252e-02 1.285598e+01 142 148 148
-3.364512e+00 -1.485183e-01 1.251586e+01 86 95 90
-4.787999e+00 -9.985989e-02 1.287208e+01 147 147 152
-7.116779e-01 -8.630166e-02 1.168250e+01 94 97 103
-4.729271e+00 -1.182660e-01 1.291314e+01 151 155 156
-1.435899e+00 -1.231504e-01 1.197206e+01 175 170 178
-3.534932e+00 -1.908023e-01 1.268780e+01 72 81 81
-5.969670e+00 1.370917e-02 1.312661e+01 166 166 168
-3.027591e-02 -1.124228e-01 1.157499e+01 99 95 87
-4.623905e+00 -1.414283e-01 1.296332e+01 152 158 156
-3.508091e+00 -2.001334e-01 1.271763e+01 99 107 111
-3.440577e+00 -2.061474e-01 1.270902e+01 175 175 179
-1.319934e+00 -1.521655e-01 1.202457e+01 94 96 103
-1.569590e+00 -1.721632e-01 1.215606e+01 170 170 169
-2.385624e+00 1.619650e+00 1.002464e+01 32 34 23
-2.725348e+00 1.422930e+00 1.041852e+01 178 178 170
-3.925561e+00 -2.577324e-01 1.306023e+01 141 138 129
-4.269360e+00 -2.750393e-01 1.326209e+01 142 144 138
-2.314611e+00 1.629241e+00 1.006717e+01 34 34 24
-2.379470e+00 1.675799e+00 1.004402e+01 85 83 76
-1.492977e+00 -3.608526e-01 1.266578e+01 89 91 88
-1.494585e+00 -3.500943e-01 1.265241e+01 89 91 88
-4.726708e+00 -3.625709e-01 1.375125e+01 141 145 147
-5.027274e+00 -3.627650e-01 1.384829e+01 91 108 98
-4.667149e+00 -3.778681e-01 1.378181e+01 132 142 139
-4.973316e+00 -3.753181e-01 1.389369e+01 173 170 162
-2.877208e+00 1.365013e+00 1.075312e+01 145 153 151
-3.753852e+00 -4.336226e-01 1.362716e+01 74 74 68
-2.887178e+00 1.367647e+00 1.078275e+01 113 118 117
-4.466539e+00 -4.604364e-01 1.394129e+01 137 143 146
-4.670985e+00 -4.764387e-01 1.408156e+01 127 141 165
-4.498151e+00 -4.969308e-01 1.411683e+01 129 137 159
-4.471762e+00 -5.073900e-01 1.412751e+01 117 134 154
-4.352742e-01 -4.413297e-01 1.274321e+01 118 127 111
-4.290753e-01 -4.522756e-01 1.278247e+01 171 174 160
-1.447269e+00 -5.957444e-01 1.336874e+01 141 141 140
-1.333962e+00 -6.174602e-01 1.341118e+01 125 127 120
-2.551248e+00 1.797193e+00 1.020408e+01 108 79 70
-1.306263e+00 -6.256340e-01 1.348661e+01 146 146 145
-2.253725e+00 1.781561e+00 1.014620e+01 33 33 23
-1.249606e+00 -6.315666e-01 1.350653e+01 148 148 142
-1.117019e+00 -6.205744e-01 1.346095e+01 149 146 141
-1.114214e+00 -6.315649e-01 1.347755e+01 149 146 141
-2.627798e+00 1.759271e+00 1.034427e+01 121 96 91
-2.322636e+00 1.967780e+00 1.014956e+01 22 55 107
-2.322636e+00 1.967780e+00 1.014956e+01 22 55 107
-2.589245e+00 2.023417e+00 1.040413e+01 44 45 42
-2.710880e+00 1.936685e+00 1.064414e+01 169 165 166
-2.694071e+00 1.967622e+00 1.061837e+01 161 154 156
-2.378305e+00 2.221984e+00 1.018502e+01 26 32 33
-2.151357e+00 2.215051e+00 1.032673e+01 34 31 31
-2.151357e+00 2.215051e+00 1.032673e+01 34 31 31
-1.342966e+00 6.000433e-01 9.505985e+00 159 158 162
-2.667247e+00 5.973047e-01 9.804853e+00 193 189 188
-5.187786e+00 3.442565e-01 1.142810e+01 39 38 30
-2.618277e+00 6.701612e-01 9.921245e+00 76 64 60
-4.072082e+00 7.172219e-01 9.936017e+00 64 54 69
-1.643517e+00 7.346361e-01 9.198968e+00 32 40 43
-3.951390e+00 -1.847208e-01 1.283806e+01 62 63 53
-1.653579e+00 7.624984e-01 9.091281e+00 120 120 112
-3.424234e+00 -1.972722e-01 1.269218e+01 152 149 137
-3.460715e+00 -4.631589e-01 1.356508e+01 183 184 188
-3.452758e+00 -4.215733e-01 1.350798e+01 183 184 188
-1.424335e+00 3.355304e-01 1.046854e+01 174 175 179
-1.424335e+00 3.355304e-01 1.046854e+01 174 175 179
-2.567714e+00 1.157199e+00 9.977446e+00 151 136 110
-6.853819e-01 3.057797e-01 1.035547e+01 37 39 48
-6.853819e-01 3.057797e-01 1.035547e+01 37 39 48
-4.589907e+00 -5.617446e-02 1.269812e+01 68 76 54
-2.529258e+00 1.517174e+00 1.004270e+01 83 69 61
-4.660329e+00 -2.799471e-01 1.343622e+01 118 130 125
-2.696756e+00 1.446769e+00 1.034659e+01 75 73 52
-9.106110e-01 -4.051025e-01 1.257800e+01 186 187 189
-2.599465e+00 1.664758e+00 1.027267e+01 38 70 119
-1.788727e+00 7.762108e-01 9.092757e+00 22 39 59
-1.790001e+00 7.783160e-01 9.090952e+00 22 39 59
-2.648136e+00 8.091968e-01 1.000937e+01 165 154 136
-2.728734e+00 9.105854e-01 1.019686e+01 73 54 54
-1.182831e+00 3.681620e-01 1.028857e+01 177 178 179
-5.291605e+00 2.175891e-01 1.198028e+01 177 178 183
-1.662959e+00 2.636602e-01 1.073852e+01 176 180 183
-2.581666e+00 1.347821e+00 1.007790e+01 96 60 52
-2.581666e+00 1.347821e+00 1.007790e+01 96 60 52
-2.581666e+00 1.347821e+00 1.007790e+01 96 60 52
-1.474235e-01 1.513421e-01 1.075157e+01 179 180 185
-2.563539e+00 1.424793e+00 1.007879e+01 158 144 118
-3.638440e+00 -2.614704e-01 1.286937e+01 189 189 190
-1.212643e+00 -2.207047e-01 1.212448e+01 159 160 164
-3.763654e+00 9.141491e-01 9.178243e+00 178 179 181
-4.421737e+00 8.204056e-01 9.788765e+00 171 171 169
-7.097644e-01 5.788768e-01 9.489630e+00 26 29 36
-2.629867e+00 8.000980e-01 9.947870e+00 117 88 66
-6.551685e-01 5.699705e-01 9.502611e+00 129 129 126
-5.751458e-01 5.315071e-01 9.567841e+00 157 156 155
-5.751458e-01 5.315071e-01 9.567841e+00 157 156 155
-2.486407e+00 1.014892e+00 9.825069e+00 35 36 32
-1.474782e+00 3.591917e-01 1.035379e+01 105 111 128
-1.404627e+00 3.585701e-01 1.032490e+01 172 174 177
-4.725813e+00 2.467673e-01 1.168842e+01 152 142 112
-1.605687e+00 3.097395e-01 1.051685e+01 158 157 163
-7.564427e-01 2.295788e-01 1.055948e+01 52 57 63
-2.489958e+00 1.352148e+00 9.922234e+00 143 123 92
-2.763267e+00 1.121159e+00 1.033360e+01 154 146 113
-9.904520e-01 1.936374e-01 1.079946e+01 94 102 115
-9.904520e-01 1.936374e-01 1.079946e+01 94 102 115
-6.794146e-01 -4.178789e-02 1.137408e+01 167 172 168
-3.385987e+00 -3.909770e-01 1.333419e+01 183 183 187
-1.201598e+00 -3.968705e-01 1.274558e+01 179 180 182
-3.748133e+00 -6.166549e-01 1.420506e+01 187 187 186
-1.309515e+00 -4.635697e-01 1.293962e+01 180 180 182
6.908236e-01 -3.813020e-01 1.216363e+01 102 95 76
-2.646195e+00 1.705024e+00 1.038336e+01 161 145 132
-2.407879e+00 2.118076e+00 1.014834e+01 24 25 19
-3.904874e+00 8.737585e-01 9.386962e+00 181 182 186
-8.200617e-01 6.707111e-01 9.214441e+00 133 133 129
-2.539890e+00 7.437067e-01 9.770740e+00 155 143 120
-5.759774e-01 5.654878e-01 9.470741e+00 24 25 21
-2.593442e+00 8.497367e-01 9.911856e+00 153 140 125
-4.930572e-01 5.389668e-01 9.521043e+00 26 27 32
-4.936086e+00 4.623713e-01 1.114869e+01 71 61 37
-4.936086e+00 4.623713e-01 1.114869e+01 71 61 37
-5.090606e+00 2.458950e-01 1.182097e+01 183 183 185
-1.376165e+00 3.308426e-01 1.041058e+01 167 167 171
-2.886423e+00 8.078508e-01 1.051098e+01 115 82 73
-8.931053e-01 2.421993e-01 1.056629e+01 183 184 183
-2.939084e+00 8.509025e-01 1.063800e+01 77 84 70
-1.366335e-01 2.903606e-01 1.025770e+01 170 173 176
-1.366335e-01 2.903606e-01 1.025770e+01 170 173 176
-1.099585e-01 2.646550e-01 1.032099e+01 130 130 139
-9.105241e-01 1.583686e-01 1.085210e+01 151 160 164
-4.588544e-01 1.466425e-01 1.077717e+01 180 184 185
-4.214353e-01 1.640056e-01 1.077133e+01 181 182 187
-1.466201e+00 6.713718e-02 1.133303e+01 118 128 126
-1.466201e+00 6.713718e-02 1.133303e+01 118 128 126
-3.274327e-01 1.215634e-01 1.089137e+01 120 120 122
-8.515464e-01 8.748495e-03 1.127628e+01 146 146 149
-1.128863e+00 -1.503049e-02 1.150038e+01 67 79 83
-4.025116e+00 -2.553235e-01 1.306950e+01 188 188 190
-2.859892e+00 1.195657e+00 1.063393e+01 58 59 52
-5.686028e-01 -2.073832e-02 1.138011e+01 115 115 117
-8.467253e-01 -5.811408e-02 1.161725e+01 163 160 161
-8.467253e-01 -5.811408e-02 1.161725e+01 163 160 161
-3.352700e+00 -5.229359e-01 1.371389e+01 182 181 189
-5.396371e-01 -4.860467e-01 1.284909e+01 132 143 134
-5.396371e-01 -4.860467e-01 1.284909e+01 132 143 134
-2.705905e+00 1.651566e+00 1.047462e+01 47 76 120
-3.956581e+00 9.638613e-01 9.100994e+00 169 173 172
-3.788263e+00 9.337287e-01 9.160303e+00 32 25 41
-4.023379e+00 8.855923e-01 9.373483e+00 57 57 70
-3.980199e+00 8.814281e-01 9.393124e+00 87 92 91
-3.900007e+00 8.761851e-01 9.386506e+00 176 185 184
-3.410865e+00 8.413109e-01 9.328629e+00 30 25 41
-3.671165e+00 8.449971e-01 9.407569e+00 184 184 184
-1.691044e+00 7.892189e-01 9.048483e+00 163 166 160
-1.383257e+00 6.673265e-01 9.360954e+00 80 81 85
-8.481522e-01 6.701764e-01 9.183348e+00 88 92 78
-7.552197e-01 6.402908e-01 9.262978e+00 99 101 91
-2.645876e+00 6.953285e-01 9.925970e+00 74 60 57
-2.603480e+00 7.945624e-01 9.906615e+00 153 132 111
-5.513047e-01 5.703158e-01 9.457960e+00 125 130 89
-2.536773e+00 9.406834e-01 9.845312e+00 114 70 61
-7.360320e-01 5.167629e-01 9.688988e+00 54 52 50
-5.316621e+00 3.398604e-01 1.160284e+01 45 49 35
-2.657404e+00 9.279112e-01 1.005942e+01 154 140 113
-2.640806e+00 1.012969e+00 1.004319e+01 150 139 117
-2.619152e+00 1.044078e+00 1.001663e+01 86 63 49
-1.020232e+00 3.784569e-01 1.016323e+01 36 35 43
-2.575163e+00 1.101787e+00 9.992662e+00 155 141 128
-2.630697e+00 1.090058e+00 1.006478e+01 62 57 51
-2.495119e+00 1.208107e+00 9.895158e+00 160 141 116
-2.593700e+00 1.159705e+00 1.002504e+01 99 61 52
-2.792485e+00 9.539640e-01 1.033899e+01 171 164 148
-2.769046e+00 9.869911e-01 1.030873e+01 116 79 63
-7.045469e-02 2.794079e-01 1.029062e+01 171 170 175
-1.441106e+00 1.527765e-01 1.102613e+01 180 181 185
-2.551752e+00 1.359441e+00 1.001482e+01 161 140 104
-2.611453e+00 1.319782e+00 1.010697e+01 120 121 72
-1.573081e-01 1.994049e-01 1.057663e+01 46 42 49
-4.516625e+00 -8.984059e-02 1.264116e+01 145 139 122
-2.503263e+00 1.433602e+00 9.978303e+00 152 56 40
-1.167990e+00 6.284674e-02 1.124494e+01 126 128 135
-3.368406e+00 -1.469881e-01 1.246622e+01 186 188 189
-1.495616e+00 6.557627e-03 1.155381e+01 154 157 163
-2.472328e+00 1.504122e+00 9.974720e+00 138 111 61
-3.707629e+00 -1.816481e-01 1.270622e+01 188 188 191
-2.527428e+00 1.459280e+00 1.006685e+01 90 74 59
-3.905772e-02 3.556257e-02 1.099928e+01 179 182 181
-3.268431e+00 -2.172212e-01 1.270060e+01 186 187 189
-3.226867e+00 -2.428074e-01 1.274213e+01 187 186 190
2.641513e-01 -3.823597e-03 1.106101e+01 136 129 131
2.641513e-01 -3.823597e-03 1.106101e+01 136 129 131
-1.126737e+00 -6.614684e-02 1.171599e+01 119 119 120
-1.412017e+00 -1.522577e-01 1.199634e+01 92 92 91
-7.641602e-01 -1.005466e-01 1.167003e+01 135 133 134
-7.641602e-01 -1.005466e-01 1.167003e+01 135 133 134
-3.713703e-02 -1.644296e-01 1.163751e+01 124 117 108
-6.120500e-01 -2.009106e-01 1.194334e+01 144 140 140
-6.120500e-01 -2.009106e-01 1.194334e+01 144 140 140
-1.082809e+00 -3.484694e-01 1.252025e+01 93 101 50
-1.082809e+00 -3.484694e-01 1.252025e+01 93 101 50
-2.719673e+00 1.584174e+00 1.049622e+01 44 73 124
-2.207074e+00 1.930047e+00 1.023361e+01 46 61 94
-3.988112e+00 9.659031e-01 9.087646e+00 163 172 152
-2.337161e+00 9.435054e-01 8.698240e+00 49 42 67
-3.860562e+00 9.373662e-01 9.154455e+00 42 35 56
-2.233243e+00 9.315781e-01 8.713312e+00 45 32 51
-3.714089e+00 9.095775e-01 9.182800e+00 165 169 154
-2.199873e+00 9.290448e-01 8.749966e+00 172 174 165
-3.557435e+00 8.748036e-01 9.261701e+00 25 23 31
-3.541653e+00 8.603538e-01 9.300957e+00 34 31 54
-3.468548e+00 8.553692e-01 9.300722e+00 30 28 38
-4.018442e+00 8.688991e-01 9.468386e+00 176 179 180
-3.482571e+00 8.463502e-01 9.327887e+00 33 28 52
-3.441192e+00 8.462850e-01 9.314244e+00 28 24 38
-3.430762e+00 8.418959e-01 9.332352e+00 179 186 178
-3.422262e+00 8.338150e-01 9.353464e+00 33 31 54
-1.671796e+00 7.915993e-01 8.997397e+00 116 119 102
-4.332170e+00 7.780373e-01 9.879086e+00 97 104 103
-2.532912e+00 7.174995e-01 9.740114e+00 148 109 74
-9.225553e-01 6.410119e-01 9.307869e+00 119 122 105
-9.963014e-01 6.173434e-01 9.420782e+00 90 96 80
-2.616956e+00 8.018175e-01 9.927348e+00 110 81 60
-2.710971e+00 7.124618e-01 1.006568e+01 158 142 116
-1.045503e+00 5.483327e-01 9.657695e+00 88 100 88
-2.816509e+00 6.386713e-01 1.026084e+01 89 75 67
-6.224974e-01 5.122249e-01 9.651034e+00 42 50 69
-4.481468e-01 5.037210e-01 9.628185e+00 144 144 133
-2.662486e+00 8.865754e-01 1.003476e+01 89 67 53
-2.693567e+00 8.760970e-01 1.008987e+01 117 65 55
-2.548689e+00 1.028908e+00 9.912898e+00 157 145 131
-1.363907e+00 3.824791e-01 1.024838e+01 155 161 165
-2.498834e+00 1.155335e+00 9.864746e+00 153 140 121
-2.857308e+00 8.086505e-01 1.040439e+01 97 76 70
-2.566387e+00 1.217924e+00 9.994178e+00 123 91 56
-2.707776e+00 1.096113e+00 1.024067e+01 99 62 52
-2.768645e+00 1.057923e+00 1.031728e+01 166 157 139
-2.746974e+00 1.071536e+00 1.030055e+01 78 81 66
-2.725612e+00 1.105462e+00 1.026627e+01 154 145 129
-2.380337e+00 1.288456e+00 9.954563e+00 25 26 20
-1.139863e+00 9.207177e-02 1.110084e+01 187 190 198
-3.502055e+00 -6.226240e-02 1.233414e+01 184 183 181
-2.810263e+00 1.230363e+00 1.049797e+01 40 39 39
-2.835745e+00 1.194258e+00 1.055553e+01 158 149 130
-2.704836e+00 1.341576e+00 1.033344e+01 156 146 120
-3.148036e+00 -2.094375e-01 1.261489e+01 186 184 187
-3.429147e+00 -2.525941e-01 1.283856e+01 186 185 190
-3.886832e+00 -2.562677e-01 1.304335e+01 107 110 99
-2.753583e+00 1.331435e+00 1.041772e+01 124 127 75
-3.377355e+00 -2.646954e-01 1.286308e+01 184 185 189
-1.344880e+00 -1.684090e-01 1.205783e+01 182 182 182
-3.548752e+00 -3.328457e-01 1.319820e+01 41 60 54
-1.423596e+00 -1.952588e-01 1.213203e+01 102 104 104
-2.849710e+00 1.311446e+00 1.065132e+01 85 90 69
-2.849710e+00 1.311446e+00 1.065132e+01 85 90 69
-1.094389e+00 -2.591279e-01 1.225004e+01 142 141 140
-4.691825e+00 -4.611155e-01 1.406696e+01 45 87 112
-9.547972e-01 -2.831644e-01 1.225263e+01 182 183 183
-2.773100e+00 1.425900e+00 1.051338e+01 115 119 85
-3.368976e+00 -4.512463e-01 1.352282e+01 66 73 63
-1.333195e+00 -3.441019e-01 1.254262e+01 178 178 180
-9.591025e-01 -4.866400e-01 1.293893e+01 116 66 34
-2.503034e+00 2.066394e+00 1.023471e+01 164 166 159
-2.558978e+00 2.130270e+00 1.042465e+01 94 55 43
-4.023171e+00 9.280878e-01 9.271647e+00 36 33 44
-4.015132e+00 9.112855e-01 9.301676e+00 44 41 59
-2.184559e+00 9.105757e-01 8.774182e+00 65 51 91
-3.952757e+00 8.953884e-01 9.305991e+00 163 170 145
-3.824664e+00 8.782132e-01 9.361364e+00 42 40 49
-1.452896e+00 8.604852e-01 8.691694e+00 71 64 71
-3.706012e+00 8.439938e-01 9.428730e+00 175 179 168
-1.774506e+00 7.806339e-01 9.051640e+00 70 71 59
-4.260055e+00 7.643184e-01 9.902149e+00 175 174 165
-4.789192e+00 6.771448e-01 1.042591e+01 34 38 57
-2.697161e+00 6.668918e-01 1.002110e+01 101 72 62
-2.547659e+00 8.739707e-01 9.845164e+00 128 61 52
-2.616814e+00 9.415075e-01 9.969207e+00 148 133 128
-2.891921e+00 6.710490e-01 1.043390e+01 97 72 68
-4.854456e+00 2.857875e-01 1.161895e+01 125 123 91
-3.662627e+00 2.871535e-01 1.132315e+01 96 42 38
-3.667344e+00 2.703683e-01 1.134061e+01 96 42 38
-4.786897e+00 2.080522e-01 1.182873e+01 150 141 131
-2.831349e+00 8.815634e-01 1.037843e+01 113 85 65
-5.360052e+00 1.888992e-01 1.212550e+01 170 173 177
-3.184569e-01 2.358115e-01 1.049267e+01 48 46 54
-4.053201e-01 1.512844e-01 1.073245e+01 182 181 186
-4.631634e+00 -7.740429e-02 1.267789e+01 73 79 53
-3.423307e+00 -1.503899e-01 1.247822e+01 178 177 182
-3.908405e+00 -1.880159e-01 1.279068e+01 115 93 82
-3.269328e+00 -1.805362e-01 1.254914e+01 184 184 186
-3.269328e+00 -1.805362e-01 1.254914e+01 184 184 186
-2.359169e+00 1.480275e+00 1.002105e+01 27 29 24
-2.731046e-01 1.559710e-02 1.117952e+01 179 181 185
-1.573208e+00 -1.217053e-01 1.196508e+01 184 182 182
-2.210390e+00 1.449591e+00 1.009755e+01 26 25 25
-1.591362e+00 -1.831324e-01 1.212964e+01 179 178 176
-1.542149e+00 -1.828403e-01 1.213366e+01 178 178 180
-3.334298e+00 -3.405621e-01 1.310118e+01 175 176 185
-4.953299e+00 -3.623491e-01 1.382612e+01 90 102 81
-4.953299e+00 -3.623491e-01 1.382612e+01 90 102 81
-3.358840e+00 -3.385828e-01 1.315717e+01 88 93 87
-3.196965e+00 -3.683093e-01 1.315505e+01 48 67 59
-2.796033e+00 1.362601e+00 1.053536e+01 164 160 150
-3.880496e+00 -4.194709e-01 1.355315e+01 81 89 74
-3.275449e+00 -3.928814e-01 1.326123e+01 55 60 48
-1.164745e+00 -2.111246e-01 1.213985e+01 185 185 187
-2.691160e+00 1.466592e+00 1.036131e+01 54 57 41
-1.070837e+00 -2.420182e-01 1.218873e+01 182 183 185
6.120629e-02 -1.850429e-01 1.169352e+01 161 158 158
-3.285457e+00 -4.701840e-01 1.353610e+01 51 61 49
-2.270811e+00 1.604474e+00 1.009103e+01 30 31 28
-1.344716e+00 -3.841888e-01 1.273731e+01 181 178 180
-2.290111e+00 1.672531e+00 1.010261e+01 81 82 74
-2.222987e+00 1.798277e+00 1.018333e+01 31 32 26
-2.259207e+00 1.843857e+00 1.015611e+01 27 27 24
-2.278849e+00 1.886618e+00 1.017006e+01 108 103 97
-2.311524e+00 1.958642e+00 1.017149e+01 132 145 171
-2.617034e+00 1.984744e+00 1.047006e+01 164 164 163
-3.926944e+00 9.616891e-01 9.092891e+00 56 48 81
-3.641215e+00 8.971486e-01 9.219189e+00 53 58 90
-3.842052e+00 8.811334e-01 9.340630e+00 41 40 60
-1.494855e+00 8.881018e-01 8.690946e+00 71 67 106
-4.781650e+00 7.944500e-01 9.969641e+00 103 101 89
-4.225221e+00 7.426709e-01 9.955476e+00 170 170 168
-4.218334e+00 7.302049e-01 9.992701e+00 48 57 68
-4.240049e+00 7.246577e-01 1.001623e+01 172 172 163
-4.538309e+00 7.297909e-01 1.011288e+01 167 166 160
-3.835782e+00 6.727275e-01 1.003184e+01 175 176 164
-4.314242e+00 6.716850e-01 1.022555e+01 173 171 168
-9.635644e-01 6.755387e-01 9.181111e+00 91 93 87
-4.845398e+00 6.275807e-01 1.061537e+01 174 181 174
-4.612391e+00 5.618714e-01 1.071452e+01 176 176 165
-2.421823e+00 7.940574e-01 9.814113e+00 43 43 43
-9.893301e-01 5.842161e-01 9.525102e+00 33 32 35
-8.796536e-01 5.367378e-01 9.659801e+00 77 77 80
-8.808345e-01 5.385826e-01 9.658119e+00 77 77 80
-7.456571e-01 5.294704e-01 9.638811e+00 98 97 94
-4.505290e-01 5.255265e-01 9.555224e+00 126 38 33
-6.088192e-01 5.176327e-01 9.638325e+00 56 59 72
-2.595623e+00 9.324754e-01 9.948877e+00 157 144 121
-2.257911e+00 8.917330e-01 9.921107e+00 92 91 86
-2.622486e+00 1.016631e+00 1.001183e+01 159 150 131
-2.882621e+00 7.331397e-01 1.045526e+01 105 87 77
-1.337533e+00 3.383438e-01 1.037177e+01 168 171 164
-2.372516e+00 1.113151e+00 9.930581e+00 27 27 25
-2.372516e+00 1.113151e+00 9.930581e+00 27 27 25
-2.317935e+00 1.088408e+00 9.942263e+00 36 35 32
-2.317935e+00 1.088408e+00 9.942263e+00 36 35 32
-2.729339e+00 1.000224e+00 1.021943e+01 153 139 118
-5.284980e+00 1.550546e-01 1.218538e+01 56 60 81
-7.179920e-01 2.743526e-01 1.043035e+01 176 179 188
-3.529179e-01 2.574097e-01 1.042589e+01 54 53 84
-3.393840e-01 2.363262e-01 1.044446e+01 54 53 84
-2.642963e+00 1.241434e+00 1.013474e+01 119 61 50
-2.690026e+00 1.211183e+00 1.022177e+01 112 86 59
-8.612240e-01 1.581151e-01 1.086337e+01 185 185 185
-2.919327e-01 1.946660e-01 1.060820e+01 53 52 76
-2.919327e-01 1.946660e-01 1.060820e+01 53 52 76
-5.972056e+00 -1.128548e-01 1.329393e+01 58 66 89
-6.005067e+00 -1.148445e-01 1.332750e+01 165 166 165
-5.914306e+00 -1.536265e-01 1.339760e+01 171 173 172
-1.289912e+00 3.963488e-02 1.140299e+01 185 189 183
-5.511435e+00 -2.651818e-01 1.358524e+01 69 80 86
-2.211041e+00 1.400821e+00 1.007745e+01 33 34 29
-1.685605e+00 -8.517976e-02 1.189572e+01 176 176 174
-2.857832e+00 1.249787e+00 1.063452e+01 78 83 62
-4.967321e+00 -3.938951e-01 1.381739e+01 175 167 154
-2.871001e+00 1.242615e+00 1.069160e+01 174 174 172
-3.475000e+00 -3.660890e-01 1.330342e+01 105 106 103
-2.208276e+00 1.501399e+00 1.011467e+01 32 32 26
-2.795465e+00 1.366964e+00 1.055694e+01 99 100 77
-3.373190e+00 -4.042611e-01 1.341246e+01 176 177 167
-2.869223e+00 1.302981e+00 1.071849e+01 92 94 73
-3.276749e+00 -4.055367e-01 1.338881e+01 178 172 176
-1.371638e+00 -3.438898e-01 1.259259e+01 180 175 177
-2.333510e+00 1.767758e+00 1.010244e+01 85 80 74
-2.332672e+00 1.764985e+00 1.010744e+01 85 80 74
-2.635684e+00 1.742300e+00 1.036069e+01 161 144 133
-2.604322e+00 1.776278e+00 1.030477e+01 157 141 131
-2.228662e+00 1.778343e+00 1.017170e+01 29 30 22
-2.200701e+00 1.772673e+00 1.018754e+01 30 31 25
-2.200701e+00 1.772673e+00 1.018754e+01 30 31 25
-2.224799e+00 1.786145e+00 1.017817e+01 54 55 46
-2.563248e+00 1.991643e+00 1.036990e+01 34 31 32
-2.510091e+00 2.068133e+00 1.028012e+01 166 160 159
-2.702536e+00 1.947163e+00 1.064749e+01 31 33 32
-2.806019e+00 1.874814e+00 1.086658e+01 153 148 150
-3.153387e+00 9.775851e-01 8.836702e+00 147 148 122
-4.155850e+00 9.594694e-01 9.190813e+00 84 70 118
-4.110647e+00 9.274956e-01 9.241352e+00 65 57 92
-2.995514e+00 9.063373e-01 8.995819e+00 104 101 121
-4.061933e+00 8.872148e-01 9.367517e+00 66 63 88
-3.851184e+00 8.843912e-01 9.343319e+00 163 173 135
-3.851184e+00 8.843912e-01 9.343319e+00 163 173 135
-3.965288e+00 8.829216e-01 9.396528e+00 173 182 168
-3.921103e+00 8.638600e-01 9.425232e+00 50 56 74
-4.092068e+00 8.701071e-01 9.479311e+00 167 183 162
-3.980387e+00 8.413304e-01 9.532348e+00 171 179 170
-4.278437e+00 7.915081e-01 9.803704e+00 39 40 57
-4.278437e+00 7.915081e-01 9.803704e+00 39 40 57
-4.175156e+00 7.762341e-01 9.837343e+00 163 166 144
-4.122128e+00 7.477141e-01 9.900404e+00 53 52 86
-4.122128e+00 7.477141e-01 9.900404e+00 53 52 86
-4.561469e+00 7.368443e-01 1.009316e+01 47 47 65
-4.528758e+00 7.278568e-01 1.012600e+01 53 45 86
-3.929268e+00 6.991376e-01 9.980855e+00 161 172 150
-4.403796e+00 6.971653e-01 1.017626e+01 167 172 147
-4.400743e+00 6.923453e-01 1.019141e+01 49 53 66
-4.377047e+00 6.866749e-01 1.018801e+01 36 41 60
-1.330712e+00 7.084267e-01 9.224330e+00 106 120 46
-4.251598e+00 6.525412e-01 1.026469e+01 41 51 89
-4.165583e+00 6.287429e-01 1.031014e+01 55 60 85
-4.115889e+00 6.247398e-01 1.029709e+01 66 62 86
-8.610399e-01 6.444073e-01 9.288866e+00 83 52 64
-2.468628e+00 7.957243e-01 9.799399e+00 43 41 42
-4.527140e+00 5.414441e-01 1.078178e+01 178 186 177
-2.475612e+00 8.566699e-01 9.795230e+00 94 94 83
-5.784105e-01 5.801346e-01 9.420403e+00 86 88 85
-2.652436e+00 7.566196e-01 9.976407e+00 113 87 66
-5.374171e-01 5.579726e-01 9.484724e+00 44 45 46
-1.046577e+00 5.254060e-01 9.728118e+00 129 43 34
-4.725939e-01 5.442235e-01 9.528347e+00 80 75 96
-8.698071e-01 5.345061e-01 9.677852e+00 139 128 109
-2.470318e+00 9.636188e-01 9.822041e+00 92 96 83
-5.823879e-01 4.806951e-01 9.744488e+00 105 110 93
-2.786089e+00 7.692935e-01 1.025280e+01 120 89 67
-4.036245e+00 3.908582e-01 1.110075e+01 103 106 86
-5.006530e+00 2.882435e-01 1.162342e+01 93 88 49
-1.509139e+00 3.705481e-01 1.031557e+01 53 58 78
-2.880451e+00 7.196284e-01 1.045825e+01 102 84 72
-2.880451e+00 7.196284e-01 1.045825e+01 102 84 72
-2.682183e+00 1.002545e+00 1.011941e+01 120 91 68
-2.926909e+00 7.002170e-01 1.054155e+01 114 93 73
-4.673814e+00 2.429307e-01 1.168802e+01 116 66 52
-1.231413e+00 3.359022e-01 1.035808e+01 57 65 85
-1.219723e+00 3.369734e-01 1.035696e+01 167 172 168
-2.316017e+00 1.097095e+00 9.948200e+00 77 78 68
-1.096937e+00 3.118703e-01 1.039740e+01 53 57 69
-1.210972e+00 2.990125e-01 1.045726e+01 59 65 78
-1.595553e+00 2.611980e-01 1.069071e+01 43 57 67
-2.657456e+00 1.105443e+00 1.013654e+01 162 147 127
-1.649234e+00 2.122876e-01 1.087163e+01 167 172 172
-1.559197e+00 2.007545e-01 1.087430e+01 59 69 78
-5.014590e+00 1.050247e-02 1.252986e+01 168 179 183
-2.632871e+00 1.241549e+00 1.014014e+01 165 152 140
-2.660650e+00 1.234414e+00 1.017607e+01 114 90 64
-2.485057e+00 1.391332e+00 9.931236e+00 90 68 48
-2.484908e+00 1.387250e+00 9.934980e+00 90 68 48
-4.481643e+00 -8.231001e-02 1.264932e+01 127 75 54
-3.165670e+00 -2.062636e-02 1.209913e+01 49 59 58
-3.536202e+00 -9.441742e-02 1.234860e+01 38 52 41
-3.548609e+00 -9.324885e-02 1.238057e+01 181 179 176
-3.484190e+00 -1.029126e-01 1.237081e+01 57 70 62
-1.242278e+00 -1.352496e-02 1.148202e+01 180 188 182
-3.559154e+00 -1.436859e-01 1.260188e+01 51 56 46
-3.359463e+00 -1.854947e-01 1.258456e+01 187 188 187
-3.133795e+00 -1.722789e-01 1.248390e+01 175 173 171
-5.410212e+00 -2.953021e-01 1.365324e+01 85 99 106
-3.415441e+00 -2.286169e-01 1.276953e+01 185 185 187
-3.295135e+00 -2.545350e-01 1.283434e+01 176 184 182
-2.320007e+00 1.490209e+00 1.003983e+01 73 73 62
-5.233010e-01 -8.895038e-03 1.138372e+01 182 179 184
-5.233010e-01 -8.895038e-03 1.138372e+01 182 179 184
-3.232183e+00 -2.740502e-01 1.286378e+01 67 80 74
-2.843619e+00 1.253466e+00 1.062670e+01 131 123 106
-5.005024e+00 -3.948256e-01 1.384710e+01 84 111 102
-8.931972e-01 -1.133578e-01 1.180817e+01 186 182 184
-3.437072e+00 -3.484372e-01 1.323501e+01 155 152 151
-3.431181e+00 -3.603747e-01 1.328466e+01 114 121 119
-3.199660e+00 -3.507453e-01 1.317377e+01 106 108 103
-3.285361e+00 -3.762582e-01 1.329171e+01 172 170 172
-3.261391e+00 -3.973466e-01 1.333127e+01 54 72 56
-3.301983e+00 -3.889680e-01 1.335322e+01 52 60 49
-3.781904e+00 -4.632385e-01 1.365890e+01 64 69 54
-2.297612e+00 1.591426e+00 1.008106e+01 90 90 82
-2.297612e+00 1.591426e+00 1.008106e+01 90 90 82
-2.280722e+00 1.586199e+00 1.008990e+01 70 70 60
-3.238320e+00 -6.109026e-01 1.398748e+01 83 83 82
-3.577320e+00 -6.975858e-01 1.445335e+01 143 150 151
-9.628724e-01 -6.469087e-01 1.353407e+01 155 155 150
-9.097104e-01 -6.496835e-01 1.354929e+01 154 154 151
1.111500e+00 -5.842610e-01 1.255820e+01 120 110 103
-2.331259e+00 1.838088e+00 1.013063e+01 96 96 86
-2.748076e+00 1.680074e+00 1.059647e+01 168 146 138
-2.410723e+00 2.276518e+00 1.021522e+01 100 89 69
-3.919987e+00 9.434238e-01 9.152620e+00 173 176 183
-4.232013e+00 9.329261e-01 9.324649e+00 112 108 117
-4.170275e+00 9.140903e-01 9.357456e+00 154 160 145
-4.180141e+00 9.111368e-01 9.363871e+00 64 62 79
-3.931593e+00 9.044804e-01 9.306930e+00 59 55 79
-3.649231e+00 8.965597e-01 9.228810e+00 146 160 118
-3.643412e+00 8.875220e-01 9.241702e+00 70 63 94
-4.031325e+00 8.879164e-01 9.358475e+00 100 98 106
-4.031325e+00 8.879164e-01 9.358475e+00 100 98 106
-3.940243e+00 9.012051e-01 9.328218e+00 147 143 150
-4.247299e+00 8.815419e-01 9.428952e+00 75 72 89
-4.204436e+00 8.903688e-01 9.440274e+00 64 67 73
-3.861246e+00 8.825662e-01 9.352549e+00 60 62 63
-3.956038e+00 8.805886e-01 9.394620e+00 65 64 89
-3.900196e+00 6.842284e-01 1.001174e+01 169 174 187
-4.717658e+00 5.947250e-01 1.068011e+01 67 70 99
-1.012051e+00 6.237994e-01 9.436700e+00 92 94 55
-1.005978e+00 6.114675e-01 9.444544e+00 92 94 55
-4.618409e+00 5.623146e-01 1.073396e+01 168 179 163
-4.610853e+00 5.649905e-01 1.074106e+01 65 74 91
-2.540250e+00 8.542723e-01 9.824357e+00 107 77 51
-2.598009e+00 8.590823e-01 9.923109e+00 118 102 87
-4.546272e-01 5.140949e-01 9.592010e+00 116 104 93
-2.335001e+00 9.106965e-01 9.885962e+00 83 82 78
-4.480846e+00 2.876308e-01 1.149475e+01 66 69 43
-5.210645e+00 2.616436e-01 1.182874e+01 90 97 99
-2.051922e-01 3.072314e-01 1.019280e+01 167 169 180
-5.654791e+00 9.658021e-02 1.249064e+01 96 97 113
-9.511497e-01 2.433040e-01 1.059822e+01 73 81 95
-9.440844e-01 2.286953e-01 1.061199e+01 73 81 95
-2.409065e+00 1.278585e+00 9.935082e+00 82 84 73
-5.436151e+00 3.056912e-02 1.261792e+01 134 136 138
-1.513724e+00 1.507943e-01 1.104586e+01 62 68 84
-5.204605e+00 -5.935267e-03 1.266932e+01 132 135 142
-5.204605e+00 -5.935267e-03 1.266932e+01 132 135 142
-4.441762e-01 1.676523e-01 1.069444e+01 174 175 172
-4.446468e-01 1.492222e-01 1.075082e+01 80 85 104
-3.083666e+00 2.697177e-02 1.193855e+01 63 77 78
-3.207128e-01 1.326229e-01 1.077086e+01 171 176 167
-3.525867e+00 -7.761017e-02 1.229879e+01 42 43 37
-3.542085e+00 -7.752682e-02 1.230953e+01 171 178 167
-2.447073e-01 1.231633e-01 1.078986e+01 87 90 100
-2.948948e-01 1.186572e-01 1.082184e+01 69 78 98
-1.627600e+00 3.398691e-02 1.147888e+01 54 64 66
-3.436938e+00 -1.168468e-01 1.239917e+01 78 89 87
-1.319552e+00 5.403658e-02 1.135696e+01 185 187 186
-8.773519e-01 4.822090e-02 1.121385e+01 63 69 76
-1.244621e+00 3.655512e-03 1.144824e+01 77 83 96
-3.282970e+00 -1.584251e-01 1.248144e+01 73 90 90
-1.270475e+00 2.492921e-02 1.144854e+01 86 92 101
-3.205803e+00 -1.996600e-01 1.261277e+01 168 171 170
-3.123119e+00 -2.236967e-01 1.265833e+01 95 101 94
-2.776406e+00 1.286176e+00 1.047330e+01 116 124 86
-1.410153e+00 -1.449489e-01 1.199768e+01 56 57 64
-5.045411e+00 -4.240548e-01 1.391478e+01 111 125 125
-5.097480e+00 -4.255776e-01 1.399456e+01 153 147 121
-3.384056e+00 -3.226038e-01 1.315143e+01 117 119 123
-8.636623e-01 -1.368063e-01 1.185449e+01 101 101 99
-4.997906e+00 -3.875099e-01 1.393829e+01 147 149 130
-3.382735e+00 -3.394542e-01 1.320011e+01 105 111 111
-3.408928e+00 -3.593057e-01 1.325391e+01 112 117 115
-3.136481e+00 -3.387182e-01 1.311367e+01 93 95 95
-3.245128e+00 -3.683476e-01 1.325139e+01 130 121 126
-3.339016e+00 -3.877962e-01 1.333362e+01 102 107 95
-3.365780e+00 -4.221539e-01 1.340327e+01 120 126 126
-2.690105e+00 1.469115e+00 1.038214e+01 157 158 149
-2.790662e+00 1.373510e+00 1.057033e+01 174 172 163
-4.662530e+00 -4.623332e-01 1.406185e+01 131 151 169
-4.354004e+00 -5.263692e-01 1.405534e+01 136 139 144
-4.575982e+00 -5.299174e-01 1.415861e+01 133 145 164
-4.458600e+00 -5.584316e-01 1.420883e+01 131 146 170
-4.458600e+00 -5.584316e-01 1.420883e+01 131 146 170
-8.968170e-01 -3.216807e-01 1.236832e+01 111 115 114
-8.685692e-01 -6.579887e-01 1.356756e+01 152 152 146
-8.685692e-01 -6.579887e-01 1.356756e+01 152 152 146
-2.309711e+00 1.859082e+00 1.014525e+01 32 29 24
-2.310506e+00 1.861197e+00 1.014067e+01 32 29 24
-3.492452e+00 -3.081921e-02 1.221216e+01 56 40 49
-3.572050e+00 3.004457e-01 1.126503e+01 126 116 113
-2.115269e+01 1.649901e+01 -3.601916e+01 78 100 110
-2.166695e+01 1.688084e+01 -3.657219e+01 255 252 251
-1.662695e+00 2.273872e-01 1.084431e+01 35 34 40
-1.517665e+00 3.812545e-01 1.031437e+01 63 66 100
-1.533281e+00 2.848031e-01 1.062717e+01 159 156 150
-1.607340e+00 3.002292e-01 1.059069e+01 160 157 149
-1.589017e+00 3.863672e-01 1.031704e+01 145 147 134
-4.004409e+00 3.506318e-01 1.121635e+01 95 102 75
-3.070184e+00 3.742586e-02 1.190915e+01 17 16 22
-3.044933e+00 5.284077e-02 1.186678e+01 30 23 30
-1.049008e+00 3.743045e-01 1.022656e+01 24 22 28
-1.346208e+00 7.036774e-02 1.133512e+01 168 164 156
-1.118298e+00 3.889853e-01 1.019347e+01 25 20 26
-1.245416e+00 3.173712e-01 1.045662e+01 158 157 155
-1.447584e+00 3.976595e-01 1.024657e+01 44 39 59
-1.536246e+00 2.556862e-01 1.072387e+01 127 115 119
-1.255745e+00 3.625421e-01 1.031215e+01 35 32 61
-1.347848e+00 4.365953e-01 1.010756e+01 32 35 32
-1.435608e+00 4.688752e-01 1.002456e+01 168 163 154
-1.264705e+00 3.742393e-01 1.028094e+01 72 65 78
-1.043182e+00 1.194674e+00 9.124708e+00 133 158 186
-1.059470e+00 3.321676e-01 1.036050e+01 183 180 175
-1.339764e+01 3.514505e+00 4.957428e+00 77 71 59
-1.063712e+00 3.890135e-01 1.018025e+01 176 171 168
-1.007534e+00 4.878915e-01 9.855555e+00 54 56 54
-1.094398e+00 5.308904e-01 9.743916e+00 119 116 107
-1.061086e+00 3.611658e-01 1.026782e+01 174 174 164
-2.899877e+00 7.325581e-02 1.179080e+01 48 36 43
-1.327413e+01 3.157737e+00 4.735928e+00 59 60 54
-3.052020e+00 3.788637e-02 1.192311e+01 142 143 100
-2.958654e+00 1.111956e-01 1.169035e+01 137 148 95
-3.028441e+00 1.174159e-01 1.169149e+01 60 53 55
-1.107468e+00 5.269910e-01 9.764877e+00 71 72 67
-1.021618e+00 5.987702e-01 9.516626e+00 59 70 93
-3.585191e+00 2.847431e-01 1.130901e+01 84 34 28
-1.300248e+00 4.617881e-01 1.001704e+01 57 55 60
3.249719e+00 -4.778925e+00 3.656482e+00 113 115 69
-4.164258e+00 6.173922e-01 1.029080e+01 138 139 138
-1.542386e+00 1.650822e-01 1.100818e+01 174 172 166
-7.174162e-01 3.221435e-01 1.031087e+01 126 115 114
-6.194034e-01 5.053318e-01 9.705166e+00 49 56 67
-7.512860e-01 6.050950e-01 9.441254e+00 84 86 84
-1.357339e+00 4.753034e-01 9.983372e+00 187 182 176
-4.377808e+00 5.300398e-01 1.065248e+01 187 182 178
-4.817996e+00 6.466140e-01 1.045959e+01 56 39 45
-4.230941e+00 7.402840e-01 9.907862e+00 153 153 143
-4.243797e+00 7.596602e-01 9.847260e+00 157 153 148
-4.649315e+00 5.400632e-01 1.076654e+01 54 44 46
-4.649315e+00 5.400632e-01 1.076654e+01 54 44 46
-4.623651e+00 5.478033e-01 1.073206e+01 139 144 130
-4.612373e+00 5.309981e-01 1.078416e+01 58 43 45
-4.661596e+00 5.505632e-01 1.073455e+01 72 57 76
-4.731243e+00 5.746051e-01 1.068090e+01 87 62 94
-4.502025e+00 6.975953e-01 1.014502e+01 70 59 75
-4.105270e+00 5.925542e-01 1.036187e+01 65 63 67
-4.415464e+00 6.680681e-01 1.021529e+01 59 54 65
-4.515866e+00 6.971850e-01 1.014998e+01 132 140 131
-4.577227e+00 7.155110e-01 1.011071e+01 74 69 84
-4.418725e+00 6.728146e-01 1.019877e+01 129 134 113
-4.303399e+00 6.449045e-01 1.025245e+01 146 144 137
-4.528331e+00 7.092465e-01 1.011364e+01 82 72 93
-4.358866e+00 7.973901e-01 9.762245e+00 88 84 99
-3.994984e+00 3.416918e-01 1.122104e+01 23 21 25
-4.066021e+00 6.977837e-01 9.989893e+00 160 156 153
-4.057813e+00 7.267226e-01 9.892113e+00 162 156 158
-4.085953e+00 7.016506e-01 9.984155e+00 154 152 149
-4.159353e+00 6.073629e-01 1.032717e+01 147 144 137
-3.881176e+00 6.099136e-01 1.022443e+01 75 76 85
-4.967115e+00 7.512178e-01 1.013639e+01 85 67 53
-4.967115e+00 7.512178e-01 1.013639e+01 85 67 53
-4.700897e+00 7.509795e-01 1.002737e+01 152 156 130
-4.980433e+00 7.415366e-01 1.017513e+01 102 87 71
-4.454960e+00 6.751144e-01 1.019600e+01 112 106 116
-4.364411e+00 7.614117e-01 9.877409e+00 108 104 104
-4.360268e+00 7.588714e-01 9.886962e+00 149 148 135
-4.619130e+00 7.218854e-01 1.009726e+01 100 84 81
-4.619130e+00 7.218854e-01 1.009726e+01 100 84 81
-4.691541e+00 6.853947e-01 1.025396e+01 147 143 131
-4.733397e+00 6.743386e-01 1.030520e+01 151 151 140
-4.716863e+00 6.838702e-01 1.027566e+01 146 143 135
-4.492563e+00 8.235255e-01 9.720497e+00 70 54 59
-4.626971e+00 7.264259e-01 1.008706e+01 53 44 52
-4.627096e+00 7.207945e-01 1.010686e+01 135 136 126
-4.534010e+00 6.955541e-01 1.015980e+01 58 47 51
-4.420320e+00 7.689803e-01 9.877142e+00 142 140 111
-4.370237e+00 7.607312e-01 9.889546e+00 71 66 74
-3.589429e+00 8.833342e-01 9.262936e+00 41 39 56
-3.417611e+00 8.366548e-01 9.351550e+00 50 41 70
-3.401544e+00 1.005884e+00 8.812173e+00 63 74 117
-3.112697e+00 9.971818e-01 8.750199e+00 84 84 112
-4.456677e+00 8.346292e-01 9.664258e+00 132 138 97
-3.655308e+00 1.022340e+00 8.833805e+00 65 55 107
