ply
format ascii 1.0
element face 0
property list uchar int vertex_indices
element vertex 950
property float x
property float y
property float z
property uchar diffuse_red
property uchar diffuse_green
property uchar diffuse_blue
end_header
-1.527823e+00 -1.073959e-01 1.190187e+01 28 25 26
-1.840517e+00 -4.927212e-02 1.183822e+01 20 19 14
-1.542502e+00 -9.113468e-02 1.186922e+01 36 28 36
-1.682828e+00 -6.328833e-02 1.181481e+01 27 27 28
-2.005088e+00 -1.279610e-02 1.176961e+01 21 19 18
-1.841982e+00 -2.648180e-02 1.175234e+01 31 26 27
-2.701225e+00 1.011895e-01 1.163375e+01 52 41 60
-2.310713e+00 4.872877e-02 1.167699e+01 74 70 60
-2.285424e+00 6.256564e-02 1.164383e+01 152 148 135
-1.934424e+00 3.341655e-02 1.161956e+01 142 139 129
-2.054420e+00 5.954245e-02 1.157311e+01 39 30 60
-8.512835e-01 -5.031056e-02 1.151792e+01 26 23 18
-8.298193e-01 -3.801207e-02 1.152506e+01 38 29 33
-9.374960e-01 -1.996744e-02 1.150325e+01 136 133 119
-9.335172e-01 -1.958188e-02 1.147195e+01 129 132 103
-1.752547e+00 1.009947e-01 1.131392e+01 69 72 102
-1.718164e+00 1.356570e-01 1.118256e+01 75 82 103
-1.279420e+00 1.144755e-01 1.111932e+01 72 79 102
-1.456606e+00 1.874296e-01 1.090554e+01 79 90 118
-4.786953e+00 6.333341e-01 1.036089e+01 149 140 140
-2.656213e-01 1.220623e-01 1.087388e+01 138 134 128
-1.204717e+00 2.357506e-01 1.066601e+01 164 164 172
-2.319044e-01 1.263581e-01 1.084430e+01 107 101 105
-1.637022e+00 3.088626e-01 1.056311e+01 163 161 166
-1.634954e+00 3.097643e-01 1.056325e+01 163 161 166
-5.065375e-01 1.752553e-01 1.073164e+01 146 139 130
-1.617295e+00 3.138360e-01 1.051150e+01 76 85 112
-6.729821e-01 2.275473e-01 1.056409e+01 146 141 129
-1.274667e+00 3.299351e-01 1.040959e+01 96 109 136
-1.377443e+00 3.451732e-01 1.037385e+01 93 105 129
-4.337586e+00 7.539244e-01 9.854475e+00 107 109 122
-4.282935e+00 7.597646e-01 9.854519e+00 159 156 153
-4.140225e+00 7.492487e-01 9.827743e+00 162 158 157
-4.266372e+00 7.811394e-01 9.761737e+00 160 158 158
-2.056071e-01 3.081640e-01 1.026583e+01 145 137 125
-3.995161e+00 8.419005e-01 9.464284e+00 173 172 170
7.687105e-02 4.089159e-01 9.837496e+00 45 46 32
-4.093100e+00 9.157857e-01 9.270499e+00 178 182 182
-4.064984e+00 9.177422e-01 9.239597e+00 121 127 152
-4.064905e+00 9.172785e-01 9.242020e+00 121 127 152
3.382480e-01 3.947909e-01 9.846043e+00 28 33 30
4.867255e-01 4.113864e-01 9.682020e+00 44 37 28
5.238108e-01 4.735837e-01 9.535386e+00 76 83 62
5.752846e-01 5.598587e-01 9.269923e+00 143 133 126
1.240224e+00 5.425480e-01 9.103700e+00 47 56 23
1.212778e+00 5.469857e-01 9.127899e+00 47 56 23
-2.870926e+00 1.323167e+00 1.085948e+01 30 24 19
-2.870926e+00 1.323167e+00 1.085948e+01 30 24 19
-7.952246e-01 1.004195e+00 7.983144e+00 157 150 141
-2.690084e+00 1.354155e+00 1.097004e+01 36 27 25
-7.602308e-01 1.118603e+00 7.574785e+00 76 85 38
-2.857977e+00 1.426039e+00 1.089447e+01 36 29 24
-6.634993e-01 1.353912e+00 6.781632e+00 154 143 141
-2.714103e+00 1.760343e+00 1.106649e+01 16 16 14
-1.553453e+00 -1.618167e-01 1.206950e+01 42 30 40
-2.258542e+00 -5.951431e-02 1.197602e+01 119 124 83
-1.501336e+00 -1.559525e-01 1.204771e+01 47 34 43
-2.840700e+00 8.537708e-02 1.172443e+01 140 137 126
-1.273649e+00 -1.364816e-01 1.190051e+01 124 117 108
-1.294872e+00 -1.290415e-01 1.190044e+01 116 123 86
-1.294872e+00 -1.290415e-01 1.190044e+01 116 123 86
-1.390275e+00 -1.162107e-01 1.188553e+01 114 123 87
-1.138535e+00 -3.861435e-02 1.160107e+01 125 132 91
-8.438692e-01 -6.049007e-02 1.154131e+01 129 125 105
-1.298244e+00 4.824263e-02 1.135021e+01 51 51 82
-1.284263e+00 5.278926e-02 1.135480e+01 145 140 131
-1.390222e+00 6.861165e-02 1.131314e+01 48 50 65
-1.781567e+00 1.477212e-01 1.116088e+01 76 82 110
-1.759792e+00 1.423484e-01 1.114667e+01 161 165 163
-1.748541e+00 1.498319e-01 1.114295e+01 79 90 120
-6.760034e-01 1.955747e-02 1.124661e+01 29 29 24
-1.320832e+00 1.132801e-01 1.112956e+01 65 70 95
-1.209305e+00 1.268632e-01 1.104600e+01 74 81 93
-4.936278e+00 6.018961e-01 1.047051e+01 114 94 88
-1.764554e+00 2.096893e-01 1.092577e+01 158 157 161
-1.519776e+00 1.970804e-01 1.088861e+01 160 162 165
-1.598906e+00 2.065343e-01 1.087172e+01 77 85 107
-3.117503e-01 5.792918e-02 1.104091e+01 44 37 43
-3.344023e-01 6.633247e-02 1.106654e+01 44 37 43
-1.665391e+00 2.256031e-01 1.082553e+01 160 160 165
-5.004564e-01 9.609335e-02 1.099222e+01 140 137 124
-1.845936e+00 2.631923e-01 1.072413e+01 149 150 162
-7.405117e-01 1.401376e-01 1.086657e+01 142 141 117
-2.354523e-01 9.711453e-02 1.092934e+01 42 43 46
-2.354523e-01 9.711453e-02 1.092934e+01 42 43 46
-1.833547e-01 1.257494e-01 1.083063e+01 42 43 42
-6.079626e-01 1.755064e-01 1.072038e+01 141 141 124
-1.186337e-01 1.168357e-01 1.079180e+01 50 44 52
-1.186337e-01 1.168357e-01 1.079180e+01 50 44 52
-6.300626e-01 1.795518e-01 1.070041e+01 145 138 120
-2.098475e-01 1.379860e-01 1.079269e+01 47 46 54
-2.744267e-01 1.485360e-01 1.072332e+01 42 41 45
-4.185197e-01 1.795398e-01 1.069701e+01 41 37 40
-4.403350e+00 6.766158e-01 1.010453e+01 152 145 139
-9.735068e-01 2.553807e-01 1.055865e+01 79 83 110
-6.600120e-01 2.289958e-01 1.057718e+01 42 40 45
-3.968620e+00 6.641047e-01 1.001418e+01 114 113 122
-2.803960e+00 6.329043e-01 1.071117e+01 62 54 42
-2.803730e+00 6.328976e-01 1.071084e+01 62 54 42
-4.218078e+00 7.054731e-01 9.962785e+00 85 83 96
-4.220331e+00 7.068905e-01 9.974748e+00 85 83 96
-4.315918e+00 7.470612e-01 9.844304e+00 98 102 109
-4.315918e+00 7.470612e-01 9.844304e+00 98 102 109
-1.401544e+00 3.910081e-01 1.023937e+01 168 168 173
-4.388549e+00 7.626575e-01 9.805040e+00 92 88 102
-1.399518e+00 3.972418e-01 1.021601e+01 86 96 124
-9.639557e-01 3.488622e-01 1.028424e+01 96 108 131
-1.536406e+00 4.216291e-01 1.017365e+01 75 83 109
-1.536406e+00 4.216291e-01 1.017365e+01 75 83 109
-1.279931e-01 2.878458e-01 1.029618e+01 141 133 125
-2.264515e-01 3.108996e-01 1.018084e+01 145 137 124
-4.447598e+00 8.407612e-01 9.614228e+00 152 150 138
-4.060292e+00 8.593998e-01 9.436697e+00 172 173 170
-1.259186e+00 5.178690e-01 9.788650e+00 162 158 155
-4.172239e+00 8.883695e-01 9.387695e+00 172 174 171
-4.002421e+00 8.677495e-01 9.402476e+00 174 174 174
1.321285e-01 3.686525e-01 9.967801e+00 32 33 23
-4.026575e+00 8.713432e-01 9.381685e+00 175 177 175
-4.218658e+00 9.037267e-01 9.380219e+00 174 174 174
8.965635e-02 3.763331e-01 9.946200e+00 69 69 51
-4.148584e+00 8.882041e-01 9.351502e+00 136 141 155
7.358770e-02 3.814220e-01 9.934389e+00 24 22 20
-9.510693e-01 4.991546e-01 9.726259e+00 165 163 171
-4.022632e+00 8.828528e-01 9.342597e+00 128 133 152
-4.198049e+00 9.074375e-01 9.331764e+00 126 136 153
-4.137101e+00 8.993597e-01 9.315084e+00 180 180 182
-3.726162e+00 8.518111e-01 9.379446e+00 166 166 160
1.386113e-01 4.159335e-01 9.792054e+00 24 23 28
3.132366e-01 4.011736e-01 9.814630e+00 28 31 29
-4.073873e+00 9.340508e-01 9.227188e+00 179 180 185
4.057948e-01 4.058746e-01 9.793321e+00 51 53 35
3.511108e-01 4.197664e-01 9.754177e+00 115 107 83
7.308566e-01 3.804082e-01 9.811046e+00 47 72 71
2.251241e-01 4.382780e-01 9.718115e+00 125 122 106
-3.834592e+00 9.286244e-01 9.140386e+00 92 105 121
-3.796126e+00 9.302077e-01 9.158566e+00 100 99 122
-3.909576e+00 9.518961e-01 9.084791e+00 114 121 145
5.628589e-01 4.415854e-01 9.629500e+00 57 62 39
-3.270816e+00 9.664337e-01 8.835096e+00 112 124 152
-3.221231e+00 9.635190e-01 8.838712e+00 110 118 151
-3.366965e+00 9.820485e-01 8.816095e+00 191 194 209
-3.345449e+00 9.841833e-01 8.802963e+00 116 133 158
-3.440262e+00 9.983103e-01 8.788395e+00 186 191 203
-3.295323e+00 9.805247e-01 8.808572e+00 115 128 164
-3.819980e+00 1.054045e+00 8.748704e+00 82 95 105
-3.819980e+00 1.054045e+00 8.748704e+00 82 95 105
-3.769506e+00 1.051021e+00 8.737596e+00 86 87 113
-3.732056e+00 1.064259e+00 8.739980e+00 167 162 165
-2.688523e+00 1.117636e+00 1.090283e+01 27 23 22
-4.037134e+00 1.119193e+00 8.628831e+00 121 126 147
8.533139e-01 5.500987e-01 9.252811e+00 50 55 25
-2.856195e+00 1.143166e+00 1.081855e+01 98 86 63
1.094237e+00 5.258357e-01 9.239191e+00 39 43 20
-3.776999e+00 1.098076e+00 8.606624e+00 87 89 106
5.133759e-01 6.274592e-01 9.016614e+00 43 49 38
4.536299e-01 6.490084e-01 9.006495e+00 51 51 50
6.792852e-01 6.242094e-01 8.965671e+00 46 47 29
-4.271885e+00 1.214513e+00 8.396983e+00 160 166 201
5.739228e-01 6.709598e-01 8.832070e+00 52 55 53
-2.701668e+00 1.213489e+00 1.092541e+01 38 34 26
7.291683e-01 7.051340e-01 8.699841e+00 116 109 84
-9.537261e-01 1.056692e+00 7.846480e+00 74 95 104
-3.049155e+00 1.339850e+00 7.556271e+00 83 85 84
-3.049155e+00 1.339850e+00 7.556271e+00 83 85 84
-2.805397e+00 1.569607e+00 6.643253e+00 174 172 182
-6.400588e-01 1.335633e+00 6.804475e+00 154 146 144
-3.050618e+00 1.605083e+00 6.660549e+00 111 111 117
-3.014822e+00 1.625292e+00 6.602061e+00 120 125 131
-2.814234e+00 1.835570e+00 5.853838e+00 98 88 63
-2.861866e+00 1.623299e+00 1.094642e+01 42 35 25
-2.807866e+00 1.625551e+00 1.098089e+01 91 77 63
-2.686488e+00 1.911257e+00 1.111996e+01 17 15 17
-1.573634e+00 -1.628116e-01 1.206649e+01 61 49 53
-1.573634e+00 -1.628116e-01 1.206649e+01 61 49 53
-2.721235e+00 5.775431e-02 1.176917e+01 155 147 134
-1.900400e+00 1.991839e-02 1.163792e+01 126 123 102
-1.991063e+00 1.404534e-01 1.124809e+01 158 159 154
-5.865948e-01 7.338444e-04 1.130069e+01 37 28 28
-1.721549e+00 1.454108e-01 1.111732e+01 96 101 137
-4.625694e+00 5.229146e-01 1.066486e+01 62 51 49
-4.608920e+00 5.327467e-01 1.063872e+01 63 55 69
-4.755504e+00 5.636603e-01 1.056475e+01 88 79 74
-4.755504e+00 5.636603e-01 1.056475e+01 88 79 74
-1.744111e+00 1.975022e-01 1.095051e+01 86 93 120
-1.615365e+00 2.027142e-01 1.091522e+01 160 162 163
-4.223931e-01 7.161301e-02 1.103315e+01 41 40 35
-5.469856e-01 9.926153e-02 1.095139e+01 133 129 119
-4.992188e-01 1.082550e-01 1.097453e+01 141 139 128
-1.977412e-01 1.005001e-01 1.091474e+01 54 39 65
-1.638860e+00 2.838613e-01 1.063681e+01 70 82 107
-1.145128e+00 2.266424e-01 1.068951e+01 84 99 110
-4.697974e+00 6.795986e-01 1.020812e+01 149 145 147
-4.701013e+00 6.775311e-01 1.019793e+01 149 145 147
-4.186693e+00 6.092758e-01 1.024735e+01 75 72 89
-4.174047e+00 6.118493e-01 1.025468e+01 144 146 134
-1.924467e-01 1.178203e-01 1.085156e+01 33 36 29
-1.184920e-01 1.119720e-01 1.085630e+01 53 47 61
-4.116968e+00 6.067394e-01 1.028027e+01 84 79 102
-1.294921e+00 2.587684e-01 1.064351e+01 160 165 180
-6.228880e-01 1.713849e-01 1.072165e+01 40 36 32
-4.164769e+00 6.208636e-01 1.023357e+01 89 87 109
-1.322516e-01 1.193647e-01 1.076098e+01 56 54 53
-2.921455e+00 5.260989e-01 1.061998e+01 49 38 28
-3.007566e-01 1.526328e-01 1.070811e+01 41 39 36
-3.589022e-01 1.626300e-01 1.070924e+01 140 134 123
-4.622487e+00 7.162392e-01 1.004596e+01 86 88 102
-6.980061e-01 2.282733e-01 1.057104e+01 44 42 38
-1.045949e+00 2.723838e-01 1.052781e+01 164 167 178
-4.200186e+00 6.850165e-01 1.003414e+01 91 89 106
-4.240211e+00 7.003312e-01 9.981899e+00 149 146 138
-4.245053e+00 7.032292e-01 9.997742e+00 149 146 138
-2.912410e+00 6.566347e-01 1.065837e+01 57 54 37
-7.455601e-01 2.900521e-01 1.038469e+01 157 152 155
-1.287312e+00 3.590517e-01 1.030520e+01 90 96 121
-3.935278e+00 6.892897e-01 9.939789e+00 95 88 114
-4.038917e+00 7.154543e-01 9.897355e+00 91 96 112
-1.253655e+00 3.686102e-01 1.023897e+01 93 108 126
-1.072585e+00 3.508196e-01 1.026054e+01 101 116 137
-1.486471e+00 4.143486e-01 1.017924e+01 89 97 118
-9.254929e-01 3.455688e-01 1.024593e+01 170 176 184
-3.775085e+00 7.008708e-01 9.864218e+00 92 90 105
-1.447752e+00 4.602399e-01 9.979256e+00 158 160 158
-1.447752e+00 4.602399e-01 9.979256e+00 158 160 158
-1.378595e+00 4.635437e-01 9.994540e+00 162 166 171
-3.855972e+00 7.881987e-01 9.610850e+00 99 103 122
-3.956342e+00 8.247826e-01 9.517924e+00 131 136 152
-3.921764e+00 8.475149e-01 9.429591e+00 177 173 177
-3.726333e+00 8.357667e-01 9.399428e+00 80 85 99
1.282637e-01 3.752756e-01 9.917671e+00 29 31 21
-3.893444e+00 8.757055e-01 9.319477e+00 99 112 125
3.226117e-01 3.751037e-01 9.899515e+00 40 41 30
-3.832465e+00 8.769063e-01 9.315977e+00 174 171 177
-1.242530e+00 5.780918e-01 9.577513e+00 98 98 96
-3.943297e+00 9.030764e-01 9.271313e+00 179 176 185
2.537515e-01 4.166481e-01 9.765141e+00 34 38 39
2.537515e-01 4.166481e-01 9.765141e+00 34 38 39
-4.192707e+00 9.498553e-01 9.154070e+00 115 124 144
-4.192707e+00 9.498553e-01 9.154070e+00 115 124 144
-3.754802e+00 9.077831e-01 9.181256e+00 87 91 99
-4.234179e+00 9.749768e-01 9.151783e+00 178 179 182
-2.926786e+00 9.843388e-01 1.073944e+01 97 85 69
3.108332e-01 4.274669e-01 9.687884e+00 45 42 30
2.873302e-01 4.316686e-01 9.718131e+00 45 42 30
-2.918067e+00 9.904059e-01 1.074449e+01 70 56 49
5.987124e-01 4.122682e-01 9.669681e+00 49 52 29
4.383151e-01 4.344244e-01 9.688582e+00 55 57 45
4.949058e-01 4.500489e-01 9.589763e+00 67 70 51
5.507401e-01 4.543463e-01 9.588375e+00 112 107 95
-3.664621e+00 1.025941e+00 8.780245e+00 89 97 117
-3.418002e+00 9.990719e-01 8.781027e+00 117 134 156
5.777258e-01 5.361536e-01 9.284836e+00 91 88 83
-3.125858e+00 9.943897e-01 8.718650e+00 110 126 145
-3.721469e+00 1.072521e+00 8.666131e+00 83 91 102
-3.587482e+00 1.061000e+00 8.650582e+00 105 111 130
-3.155311e+00 1.008738e+00 8.673257e+00 111 122 144
-3.899546e+00 1.117011e+00 8.565711e+00 109 109 124
-3.327981e+00 1.053161e+00 8.558228e+00 177 180 192
-2.906790e+00 1.168103e+00 1.080518e+01 24 18 20
-2.906790e+00 1.168103e+00 1.080518e+01 24 18 20
-3.308588e+00 1.066418e+00 8.569045e+00 178 182 193
1.180394e+00 5.693190e-01 9.082861e+00 90 94 60
1.143042e+00 5.751355e-01 9.127200e+00 90 94 60
5.733667e-01 6.351292e-01 8.925088e+00 96 98 88
-3.737460e+00 1.155843e+00 8.430991e+00 164 164 164
1.370545e+00 5.760179e-01 8.976479e+00 100 96 65
-4.495787e+00 1.262062e+00 8.312297e+00 154 156 173
-4.804301e+00 1.315244e+00 8.194739e+00 126 120 113
8.911199e-01 6.837077e-01 8.769815e+00 99 104 77
6.998218e-01 7.038295e-01 8.688625e+00 110 110 99
-1.208900e+00 9.458190e-01 8.315798e+00 160 159 165
-1.038182e+00 9.476289e-01 8.145972e+00 159 158 154
-1.015272e+00 9.795134e-01 8.116759e+00 159 158 156
-2.773735e+00 1.225052e+00 7.895425e+00 176 183 195
-2.875630e+00 1.335027e+00 1.086109e+01 99 87 64
-7.372515e-01 1.000385e+00 7.903977e+00 53 73 74
-3.354093e+00 1.333446e+00 7.677261e+00 172 179 192
-8.959387e-01 1.067764e+00 7.846763e+00 85 96 67
-3.095942e+00 1.348561e+00 7.517145e+00 102 102 103
-3.133770e+00 1.355585e+00 7.532424e+00 98 101 108
-2.812746e+00 1.415984e+00 1.092218e+01 93 82 71
-2.969537e+00 1.416396e+00 7.246891e+00 107 107 113
-3.032712e+00 1.432959e+00 7.208515e+00 118 118 126
-3.032712e+00 1.432959e+00 7.208515e+00 118 118 126
2.228303e+00 9.071191e-01 7.611356e+00 47 44 35
-2.751764e+00 1.551975e+00 6.711729e+00 170 168 178
-9.258007e-01 1.359865e+00 6.837376e+00 122 120 121
-3.006147e+00 1.605449e+00 6.579298e+00 166 165 171
-2.844103e+00 1.551243e+00 1.093804e+01 27 26 19
-2.780236e+00 1.545901e+00 1.097071e+01 87 76 62
-2.872982e+00 1.578125e+00 1.092855e+01 14 15 11
-2.873945e+00 1.577860e+00 1.093373e+01 14 15 11
-2.773081e+00 1.617149e+00 1.099496e+01 93 77 61
-2.669487e+00 1.616616e+00 1.105748e+01 23 24 17
-2.669487e+00 1.616616e+00 1.105748e+01 23 24 17
-2.709415e+00 1.693687e+00 1.105611e+01 60 56 47
-2.708869e+00 1.693613e+00 1.105388e+01 60 56 47
-2.827764e+00 1.796548e+00 1.101157e+01 55 52 40
-2.636034e+00 1.910901e+00 1.115226e+01 97 88 87
-1.505206e+00 -1.438533e-01 1.204395e+01 128 126 115
-1.714122e+00 -2.684851e-02 1.170643e+01 114 113 75
-1.117877e+00 -3.808316e-02 1.158331e+01 49 44 57
-1.532516e+00 3.650059e-02 1.146612e+01 133 126 134
-4.382072e+00 4.269802e-01 1.094712e+01 137 135 123
-4.606318e+00 5.215201e-01 1.068336e+01 73 61 63
-4.625146e+00 5.340131e-01 1.067319e+01 126 126 113
-4.654154e+00 5.335354e-01 1.064011e+01 134 133 122
-4.631152e+00 5.346016e-01 1.062989e+01 79 74 80
-4.825807e+00 5.706300e-01 1.056358e+01 89 81 67
-4.747529e+00 5.628513e-01 1.056153e+01 144 137 122
-4.901670e+00 5.912546e-01 1.053547e+01 114 110 82
-1.725301e+00 1.970238e-01 1.094178e+01 149 153 166
-3.066000e-01 5.940309e-02 1.102650e+01 65 53 68
-5.700360e-01 1.010058e-01 1.095134e+01 128 127 112
-9.520128e-01 1.857501e-01 1.076360e+01 148 143 122
-4.043054e+00 5.771300e-01 1.031462e+01 84 77 90
-4.733795e+00 6.717510e-01 1.023425e+01 98 95 107
-4.057942e+00 5.864196e-01 1.029567e+01 79 77 87
-4.061622e+00 5.911435e-01 1.027700e+01 146 142 134
-4.061622e+00 5.911435e-01 1.027700e+01 146 142 134
-2.922072e+00 4.908335e-01 1.060669e+01 53 43 28
-2.808043e+00 4.927333e-01 1.066520e+01 59 56 44
-2.917393e+00 5.152891e-01 1.061901e+01 90 79 58
-2.869730e+00 5.198841e-01 1.064301e+01 84 74 51
-4.406541e+00 6.617165e-01 1.014542e+01 67 66 71
-3.750408e-01 1.584565e-01 1.071163e+01 48 50 53
-4.613985e+00 7.188084e-01 1.000680e+01 83 83 95
-2.933282e+00 5.992614e-01 1.062760e+01 63 58 49
-4.682674e+00 7.423728e-01 9.988845e+00 113 112 117
-3.898479e+00 6.846570e-01 9.929233e+00 154 153 153
-4.051481e+00 7.072778e-01 9.917057e+00 84 85 106
-4.117347e+00 7.296973e-01 9.838037e+00 101 102 117
-4.187732e+00 7.378012e-01 9.823941e+00 89 93 102
-6.402092e-01 1.599471e-01 9.382396e+00 101 111 125
-4.316446e+00 7.679260e-01 9.765305e+00 79 85 95
-4.549768e+00 8.200158e-01 9.686670e+00 104 104 111
-4.481161e+00 8.173244e-01 9.664320e+00 91 91 93
-3.841862e+00 7.544920e-01 9.621225e+00 110 112 130
-1.293543e+00 4.534964e-01 1.000924e+01 89 100 124
-4.417849e+00 8.389688e-01 9.573313e+00 97 91 101
-1.433119e+00 4.757671e-01 9.952239e+00 145 145 155
-3.736206e+00 8.415204e-01 9.398479e+00 157 165 164
-3.564990e+00 8.217827e-01 9.414795e+00 116 118 130
-3.813195e+00 8.554118e-01 9.373939e+00 100 109 115
-8.486792e-01 5.135120e-01 9.701302e+00 157 160 178
-3.926086e+00 8.884144e-01 9.294851e+00 119 125 146
-3.926086e+00 8.884144e-01 9.294851e+00 119 125 146
-3.986068e+00 9.040133e-01 9.277173e+00 112 123 147
9.840804e-02 4.208590e-01 9.740452e+00 83 80 64
1.334606e-01 4.210494e-01 9.772694e+00 113 108 96
-4.192398e+00 9.412390e-01 9.173964e+00 172 173 183
-3.849503e+00 9.226012e-01 9.167032e+00 94 104 115
3.409645e-01 4.743619e-01 9.561285e+00 62 60 55
4.307345e-01 4.614526e-01 9.583048e+00 52 53 39
5.944308e-01 4.522201e-01 9.559048e+00 55 59 39
5.135818e-01 4.696914e-01 9.544219e+00 64 71 49
-1.623091e+00 7.777910e-01 8.993462e+00 114 126 144
-3.804714e+00 1.051667e+00 8.739369e+00 166 163 170
-3.426300e+00 1.007770e+00 8.759778e+00 181 189 198
5.500513e-01 5.449226e-01 9.276187e+00 94 93 81
-2.841550e+00 1.129232e+00 1.082542e+01 95 86 71
-2.850400e+00 1.131590e+00 1.082266e+01 56 46 34
-2.814118e+00 1.136116e+00 1.084085e+01 78 68 53
-3.322057e+00 1.046877e+00 8.614546e+00 117 134 143
-3.322057e+00 1.046877e+00 8.614546e+00 117 134 143
-3.899018e+00 1.120416e+00 8.629833e+00 113 116 129
-2.904825e+00 1.156864e+00 1.079117e+01 89 78 60
-3.266967e+00 1.045929e+00 8.587503e+00 122 131 148
-3.950079e+00 1.141164e+00 8.531388e+00 125 129 142
-3.464048e+00 1.094695e+00 8.505841e+00 125 131 153
1.151224e+00 5.589515e-01 9.109325e+00 55 59 36
-1.485611e+00 8.636571e-01 8.654090e+00 106 113 116
-3.498187e+00 1.103117e+00 8.473180e+00 136 145 161
-3.566235e+00 1.121094e+00 8.476480e+00 122 128 143
-1.561599e+00 8.842479e-01 8.615201e+00 83 91 93
-2.895090e+00 1.196009e+00 1.081363e+01 96 84 64
-2.806064e+00 1.039198e+00 8.455663e+00 119 129 142
-3.755510e+00 1.156654e+00 8.423821e+00 106 100 110
-2.866289e+00 1.060905e+00 8.398156e+00 173 181 194
-2.881204e+00 1.067221e+00 8.406201e+00 129 135 154
-2.878801e+00 1.065287e+00 8.382965e+00 129 135 154
-3.026921e+00 1.092245e+00 8.361973e+00 123 127 137
-4.600218e+00 1.283726e+00 8.263246e+00 143 138 150
-3.100584e+00 1.123880e+00 8.297700e+00 125 131 147
-3.100584e+00 1.123880e+00 8.297700e+00 125 131 147
-1.049441e+00 9.181874e-01 8.370124e+00 123 125 122
-2.681217e+00 1.239392e+00 1.095572e+01 64 51 35
-2.679564e+00 1.238108e+00 1.094801e+01 64 51 35
-1.137467e+00 9.361168e-01 8.282855e+00 130 130 136
-3.195402e+00 1.217961e+00 8.091419e+00 144 155 177
-9.244872e-01 9.738992e-01 8.113775e+00 147 146 140
-2.701257e+00 1.296137e+00 1.095483e+01 93 81 63
-8.545859e-01 1.012374e+00 8.012466e+00 80 90 82
-6.656607e-01 1.037908e+00 7.854757e+00 104 108 92
-2.861950e+00 1.423287e+00 1.090318e+01 47 38 34
-2.968277e+00 1.479387e+00 7.036706e+00 141 140 145
-2.774470e+00 1.476773e+00 6.975853e+00 142 144 153
-2.773533e+00 1.469829e+00 1.096037e+01 89 77 60
-2.866392e+00 1.524327e+00 1.092134e+01 36 31 26
-2.560376e+00 1.644232e+00 6.337873e+00 146 146 154
-2.816710e+00 1.574813e+00 1.096254e+01 92 79 65
-2.649791e+00 1.596846e+00 1.106248e+01 28 22 16
-2.709913e+00 1.609319e+00 1.103148e+01 18 18 11
-2.801655e+00 1.630701e+00 1.099084e+01 28 20 13
-2.834124e+00 1.639392e+00 1.096802e+01 21 17 17
-2.853700e+00 1.644145e+00 1.095651e+01 21 14 11
-2.866783e+00 1.646963e+00 1.095025e+01 23 14 8
-2.715683e+00 1.631836e+00 1.103535e+01 36 31 28
-2.833300e+00 1.650787e+00 1.097647e+01 24 21 17
-2.821704e+00 1.655805e+00 1.097733e+01 33 26 18
-2.823029e+00 1.655361e+00 1.098323e+01 33 26 18
-2.781509e+00 1.742113e+00 1.102482e+01 20 19 13
-2.783167e+00 1.755307e+00 1.102784e+01 22 19 11
-2.818212e+00 1.902420e+00 1.104524e+01 22 15 12
-2.844072e+00 1.910708e+00 1.103253e+01 15 15 9
-2.677893e+00 1.905589e+00 1.112894e+01 90 86 74
-2.737422e+00 1.921389e+00 1.104638e+01 88 82 73
-2.837564e+00 1.898160e+00 1.135868e+01 20 15 16
-2.819514e+00 1.971064e+00 1.106052e+01 89 81 72
-2.769800e+00 2.000785e+00 1.118352e+01 40 38 31
-1.973179e+00 2.238018e-02 1.173338e+01 163 161 151
-1.811317e+00 8.350384e-02 1.142706e+01 167 166 160
-1.639348e+00 2.161525e-01 1.083090e+01 56 52 55
-1.624851e+00 2.859410e-01 1.063878e+01 57 63 46
-3.584798e+00 2.451114e-01 1.126734e+01 169 167 159
-1.431639e+00 8.514135e-01 8.809510e+00 197 203 217
-1.842862e+00 8.417623e-01 8.770083e+00 103 119 135
-2.519562e+00 1.922301e+00 1.102720e+01 17 17 15
-2.373261e+00 7.081035e-02 1.176588e+01 166 162 153
-2.988121e+00 -5.672471e-02 1.218318e+01 150 148 140
-1.304872e+00 5.323443e-01 9.748421e+00 72 78 78
-5.084617e+00 1.064221e+00 9.016161e+00 85 74 18
-2.645696e+00 1.656632e+00 1.107742e+01 23 25 19
-1.872758e+00 1.297046e-01 1.137682e+01 170 170 162
-1.037330e+00 3.895615e-01 1.010668e+01 49 48 44
-2.462670e+00 5.560738e-01 1.030399e+01 33 32 27
-2.462670e+00 5.560738e-01 1.030399e+01 33 32 27
-1.841916e+00 1.050899e-02 1.175697e+01 23 17 21
-1.513475e+00 1.639514e-01 1.097364e+01 167 165 161
-8.229113e-01 3.167128e-01 1.030408e+01 26 24 29
-8.783207e-01 3.519008e-01 1.014445e+01 169 167 164
-3.105472e+00 -3.650768e-05 1.202545e+01 156 154 137
-3.178449e+00 -5.646472e-03 1.202968e+01 35 29 39
-1.608055e+00 2.982675e-01 1.055573e+01 168 164 160
-3.190521e+00 2.582226e-02 1.197146e+01 155 152 143
-2.942233e+00 1.177193e-01 1.164021e+01 27 28 19
-2.560795e+00 5.055114e-01 1.048603e+01 23 24 23
-3.697172e+00 2.471545e-01 1.130121e+01 96 93 79
-1.165570e+00 9.431565e-01 8.334762e+00 82 99 129
-3.955272e+00 3.772964e-01 1.111182e+01 77 78 68
-3.955272e+00 3.772964e-01 1.111182e+01 77 78 68
-2.607466e+00 7.793451e-01 1.072057e+01 105 83 59
-2.022269e+00 -2.300162e-02 1.190998e+01 154 151 136
-2.696573e+00 -1.290710e-01 1.233596e+01 79 68 66
-2.784544e+00 -1.178139e-01 1.231632e+01 147 149 135
-2.060906e+00 3.254210e-02 1.172908e+01 35 33 49
-2.924729e+00 -8.999333e-02 1.227557e+01 146 142 131
-2.158434e+00 8.650839e-02 1.155263e+01 158 157 142
-2.306047e+00 6.133961e-02 1.166088e+01 30 27 36
-1.743677e+00 2.053768e-01 1.093311e+01 166 162 162
-2.733473e-01 5.268795e-01 9.400669e+00 70 83 90
-3.585296e-01 5.196964e-01 9.441053e+00 44 63 95
-3.036190e+00 6.715780e-02 1.181692e+01 33 30 44
-1.321812e+00 4.518446e-01 1.000215e+01 183 179 172
-1.374505e+00 4.425594e-01 1.003934e+01 58 49 50
-2.351249e+00 6.182499e-01 1.007426e+01 24 24 22
-4.808650e+00 3.895065e-01 1.126018e+01 91 93 71
-4.096535e+00 7.047332e-01 9.910503e+00 162 158 146
-4.230166e+00 6.917794e-01 1.006415e+01 167 161 149
-4.470127e+00 7.815090e-01 9.721836e+00 167 160 152
-5.650306e+00 5.933192e-01 1.080631e+01 59 59 20
-8.543978e+00 1.988938e+00 6.803172e+00 36 37 39
-8.543978e+00 1.988938e+00 6.803172e+00 36 37 39
-1.866453e+00 -9.868872e-04 1.179558e+01 153 154 135
-1.859620e+00 5.905872e-03 1.177975e+01 34 27 44
-2.674187e+00 -1.306308e-01 1.233547e+01 156 154 137
-2.753325e+00 -1.340918e-01 1.236847e+01 69 57 58
-2.065490e+00 1.996686e-02 1.178078e+01 150 151 136
-2.065490e+00 1.996686e-02 1.178078e+01 150 151 136
-2.781423e+00 -1.127053e-01 1.230230e+01 144 143 123
-1.943387e+00 4.362827e-02 1.164856e+01 159 157 148
-1.943387e+00 4.362827e-02 1.164856e+01 159 157 148
-2.039317e+00 5.656880e-02 1.163099e+01 22 19 26
-1.848299e+00 1.126920e-01 1.138781e+01 36 28 41
-8.798021e-01 2.808622e-01 1.042041e+01 50 47 68
-1.300283e+00 2.464828e-01 1.064311e+01 132 125 115
-1.815329e+00 1.758268e-01 1.110882e+01 48 39 60
-1.571187e+00 2.215497e-01 1.084628e+01 46 42 61
-3.149244e+00 -3.487087e-02 1.213331e+01 139 143 123
-1.074100e+00 3.534024e-01 1.024368e+01 83 77 79
-3.066157e-01 5.081268e-01 9.486279e+00 70 83 95
-3.141727e+00 8.535405e-03 1.201195e+01 36 31 48
-1.232057e+00 3.517999e-01 1.029002e+01 187 186 171
-4.435417e-01 5.028229e-01 9.611702e+00 51 63 81
-1.714757e+00 2.891165e-01 1.063045e+01 181 182 180
-6.879581e-01 5.090567e-01 9.653322e+00 155 154 146
-4.238695e-01 5.640382e-01 9.362144e+00 112 112 115
-7.804815e-01 5.039503e-01 9.696085e+00 40 44 48
-6.921638e-01 5.390235e-01 9.565186e+00 164 162 161
-1.253917e+00 4.639159e-01 9.949004e+00 79 73 78
-1.102346e+00 5.104175e-01 9.765809e+00 52 55 54
-1.440260e+00 4.570335e-01 1.000962e+01 41 40 42
-1.196692e+00 5.474291e-01 9.671832e+00 170 166 161
-2.522451e+00 8.430236e-01 1.057369e+01 62 51 47
-4.046891e+00 6.732783e-01 9.905985e+00 165 158 146
-4.357701e+00 7.353069e-01 9.803365e+00 86 88 85
-4.424452e+00 7.929507e-01 9.638680e+00 162 158 145
-2.341387e+00 1.367126e+00 1.042495e+01 55 44 32
-2.341387e+00 1.367126e+00 1.042495e+01 55 44 32
-2.525383e+00 1.538424e+00 1.090768e+01 18 18 18
-2.525383e+00 1.538424e+00 1.090768e+01 18 18 18
-2.287033e+00 1.669598e+00 1.041719e+01 17 18 16
-6.923033e+00 8.592618e-01 1.011838e+01 110 100 81
-2.483529e+00 1.643488e+00 1.089466e+01 54 52 43
-2.438249e+00 1.704437e+00 1.079821e+01 50 47 40
-2.438249e+00 1.704437e+00 1.079821e+01 50 47 40
-2.839381e+00 1.637588e+00 1.094225e+01 48 45 40
-2.483480e+00 1.749088e+00 1.092263e+01 27 24 15
-2.489347e+00 1.787147e+00 1.091238e+01 69 67 55
-2.326916e+00 1.943021e+00 1.061278e+01 61 58 50
-2.400643e+00 1.900308e+00 1.078373e+01 60 57 49
-8.724173e+00 2.046573e+00 6.689358e+00 102 95 83
-2.590142e+00 2.050107e+00 1.097604e+01 38 39 38
-2.018233e+00 3.106858e-02 1.172513e+01 67 52 89
-2.018233e+00 3.106858e-02 1.172513e+01 67 52 89
-1.364189e+00 1.395682e-01 1.109333e+01 98 88 88
-2.289237e+00 2.194106e-02 1.181903e+01 55 46 65
-1.389167e+00 1.678680e-01 1.100241e+01 92 82 83
-9.805232e-01 2.648599e-01 1.052460e+01 82 72 77
-9.805232e-01 2.648599e-01 1.052460e+01 82 72 77
-2.331145e+00 6.124191e-02 1.169116e+01 52 44 65
-1.194900e+00 2.424046e-01 1.067598e+01 195 192 174
-1.194900e+00 2.424046e-01 1.067598e+01 195 192 174
-1.200442e+00 2.481820e-01 1.065278e+01 140 130 129
-1.596406e+00 2.080380e-01 1.090383e+01 43 37 39
-1.983125e+00 1.503685e-01 1.126341e+01 46 33 56
-1.025525e+00 3.095380e-01 1.036778e+01 174 172 162
-1.118467e+00 3.217735e-01 1.037874e+01 101 98 88
-3.305302e+00 -5.638120e-02 1.223211e+01 85 66 86
-3.305302e+00 -5.638120e-02 1.223211e+01 85 66 86
-1.226151e+00 3.230001e-01 1.041356e+01 118 107 114
-1.254794e+00 3.174627e-01 1.039825e+01 187 187 165
-1.236611e+00 3.299608e-01 1.039240e+01 187 184 172
-1.074163e+00 3.628748e-01 1.021815e+01 174 174 164
-3.160250e+00 4.059742e-03 1.203048e+01 147 145 139
-3.181813e+00 8.708737e-03 1.201971e+01 66 46 74
-1.249637e+00 3.581792e-01 1.027819e+01 111 107 93
-1.057121e+00 4.033164e-01 1.009422e+01 66 60 75
-5.848019e-01 5.030746e-01 9.650797e+00 28 49 81
-1.459259e+00 3.982286e-01 1.020114e+01 67 63 78
-8.245314e-01 6.751813e-01 9.163073e+00 166 170 182
-2.477194e+00 5.635457e-01 1.030765e+01 26 28 25
-3.635858e+00 3.015213e-01 1.123036e+01 99 101 76
-2.394289e+00 6.033440e-01 1.015773e+01 24 25 22
-2.387939e+00 6.254227e-01 1.017041e+01 98 79 56
-3.786274e+00 3.500764e-01 1.110224e+01 90 58 84
-2.353025e+00 7.899641e-01 1.019239e+01 80 67 59
-2.353025e+00 7.899641e-01 1.019239e+01 80 67 59
-2.633276e+00 8.333101e-01 1.076942e+01 51 43 36
-2.545273e+00 8.886800e-01 1.064556e+01 105 85 60
-2.467834e+00 9.082311e-01 1.050523e+01 70 65 54
-2.467834e+00 9.082311e-01 1.050523e+01 70 65 54
-2.390025e+00 9.306403e-01 1.030066e+01 104 85 66
-2.527199e+00 8.969579e-01 1.060536e+01 107 85 62
-2.476589e+00 9.197187e-01 1.052587e+01 105 85 61
-2.534740e+00 9.093238e-01 1.062063e+01 41 34 26
-2.534740e+00 9.093238e-01 1.062063e+01 41 34 26
-2.375523e+00 9.592083e-01 1.030262e+01 76 63 54
-2.381835e+00 9.719424e-01 1.032360e+01 108 86 64
-2.287479e+00 1.041465e+00 1.012802e+01 53 45 33
-2.287479e+00 1.041465e+00 1.012802e+01 53 45 33
-3.839868e+00 6.437954e-01 1.001475e+01 164 155 148
-2.334033e+00 1.053342e+00 1.026723e+01 59 51 41
-2.334033e+00 1.053342e+00 1.026723e+01 59 51 41
-2.311173e+00 1.067688e+00 1.020169e+01 63 52 42
-2.587205e+00 1.055392e+00 1.081044e+01 74 59 45
-2.587205e+00 1.055392e+00 1.081044e+01 74 59 45
-2.742324e+00 1.218121e+00 7.794414e+00 140 163 192
-5.569639e+00 5.514421e-01 1.090403e+01 66 71 38
-2.280334e+00 1.404739e+00 1.028503e+01 63 49 38
-2.306931e+00 1.472634e+00 1.036408e+01 48 35 18
-2.373151e+00 1.478046e+00 1.056062e+01 60 49 38
-2.431533e+00 1.533312e+00 1.071686e+01 46 46 37
-2.349002e+00 1.613362e+00 1.055961e+01 41 38 31
-2.349002e+00 1.613362e+00 1.055961e+01 41 38 31
-2.274786e+00 1.659202e+00 1.039922e+01 56 52 37
-2.397169e+00 1.623090e+00 1.066487e+01 65 65 53
-2.397169e+00 1.623090e+00 1.066487e+01 65 65 53
-2.321320e+00 1.667537e+00 1.049201e+01 40 37 30
-2.306798e+00 1.675470e+00 1.045942e+01 70 68 57
-2.252405e+00 1.705492e+00 1.035302e+01 59 53 43
-2.252405e+00 1.705492e+00 1.035302e+01 59 53 43
-2.562969e+00 1.574152e+00 1.099203e+01 48 48 37
-6.539444e+00 9.730228e-01 9.658489e+00 116 108 84
-2.380917e+00 1.663246e+00 1.067495e+01 68 65 58
-2.267958e+00 1.731719e+00 1.038844e+01 61 58 47
-2.267958e+00 1.731719e+00 1.038844e+01 61 58 47
-2.288985e+00 1.718109e+00 1.046172e+01 38 35 29
-2.304309e+00 1.710498e+00 1.049863e+01 64 61 52
-6.631451e+00 9.964132e-01 9.621183e+00 119 107 86
-6.913595e+00 9.024036e-01 1.001030e+01 100 93 71
-2.554881e+00 1.611790e+00 1.098626e+01 30 27 18
-2.554881e+00 1.611790e+00 1.098626e+01 30 27 18
-6.564572e+00 1.075777e+00 9.301482e+00 118 109 92
-2.393694e+00 1.695891e+00 1.067311e+01 29 24 18
-6.980596e+00 9.798447e-01 9.818079e+00 116 101 83
-2.422385e+00 1.710765e+00 1.077256e+01 73 68 62
-2.378160e+00 1.739321e+00 1.066466e+01 62 55 46
-2.378160e+00 1.739321e+00 1.066466e+01 62 55 46
-2.223716e+00 1.831227e+00 1.033175e+01 81 77 66
-2.518489e+00 1.705215e+00 1.092293e+01 67 65 53
-2.516911e+00 1.698266e+00 1.095524e+01 47 44 35
-2.516911e+00 1.698266e+00 1.095524e+01 47 44 35
-7.103658e+00 1.104546e+00 9.433000e+00 112 105 84
-2.337377e+00 1.799534e+00 1.059056e+01 54 54 46
-2.828192e+00 1.657767e+00 1.096417e+01 108 96 74
-2.377048e+00 1.806495e+00 1.069623e+01 61 59 48
-2.377048e+00 1.806495e+00 1.069623e+01 61 59 48
-2.386139e+00 1.793177e+00 1.076002e+01 51 49 37
-2.386139e+00 1.793177e+00 1.076002e+01 51 49 37
-2.543647e+00 1.723176e+00 1.101829e+01 63 60 46
-2.475047e+00 1.775366e+00 1.090238e+01 15 15 13
-2.475047e+00 1.775366e+00 1.090238e+01 15 15 13
-2.228882e+00 2.033204e+00 1.043418e+01 55 53 41
-2.284930e+00 2.031254e+00 1.058364e+01 44 42 32
-2.054304e+00 3.596721e-02 1.171336e+01 70 57 96
-2.066079e+00 3.892573e-02 1.171698e+01 159 156 153
-1.739550e+00 1.021141e-01 1.138800e+01 70 64 102
-1.375903e+00 1.675985e-01 1.100029e+01 166 171 139
-7.789191e-01 2.689055e-01 1.044176e+01 54 52 83
-1.513767e+00 1.568129e-01 1.108558e+01 64 55 79
-1.868884e+00 1.076726e-01 1.141043e+01 61 50 82
-1.868884e+00 1.076726e-01 1.141043e+01 61 50 82
-8.162994e-01 2.661244e-01 1.044659e+01 52 48 82
-1.731090e+00 1.286195e-01 1.119432e+01 62 50 83
-1.717030e+00 1.440391e-01 1.122634e+01 62 50 83
-2.939878e+00 -6.481435e-02 1.219862e+01 78 60 77
-2.939406e+00 -6.506347e-02 1.219799e+01 78 60 77
-1.697834e+00 1.482829e-01 1.116603e+01 62 55 95
-1.683100e+00 1.552617e-01 1.114437e+01 72 65 94
-1.584043e+00 1.727979e-01 1.097099e+01 61 58 83
-1.535144e+00 1.856582e-01 1.094131e+01 160 159 154
-1.039493e+00 2.790596e-01 1.049732e+01 97 91 91
-1.746510e+00 1.648993e-01 1.111318e+01 62 57 97
-1.650722e+00 1.851451e-01 1.102313e+01 58 48 76
-1.599954e+00 2.121885e-01 1.082658e+01 158 157 148
-1.039532e+00 3.164886e-01 1.034838e+01 99 92 109
-1.039532e+00 3.164886e-01 1.034838e+01 99 92 109
-1.673621e+00 2.249288e-01 1.086586e+01 157 159 148
-1.988817e+00 2.036316e-01 1.103652e+01 52 40 68
-1.219719e+00 3.438134e-01 1.033181e+01 108 100 112
-1.236317e+00 3.580178e-01 1.028491e+01 182 184 161
-1.325187e+00 3.446130e-01 1.036566e+01 121 117 110
-1.266050e+00 3.760573e-01 1.022513e+01 189 189 180
-5.604146e-01 5.113721e-01 9.574192e+00 98 103 102
-1.298386e+00 3.768735e-01 1.022898e+01 123 116 125
-1.609530e+00 3.313636e-01 1.044777e+01 44 39 56
-7.967464e-01 5.561019e-01 9.565530e+00 66 65 69
-1.421128e+00 4.950628e-01 9.943755e+00 58 55 83
-1.160676e+00 5.537767e-01 9.626219e+00 107 110 104
-2.512250e+00 5.618379e-01 1.038553e+01 95 74 54
-2.479913e+00 5.775186e-01 1.035388e+01 94 76 58
-2.401913e+00 6.298781e-01 1.018841e+01 64 53 41
-3.944974e+00 3.573121e-01 1.112934e+01 167 160 154
-2.572397e+00 8.212071e-01 1.066216e+01 65 53 47
-2.507975e+00 8.512400e-01 1.053341e+01 71 61 52
-2.591586e+00 8.452509e-01 1.070084e+01 49 38 33
-2.591586e+00 8.452509e-01 1.070084e+01 49 38 33
-2.443560e+00 8.837415e-01 1.044138e+01 56 46 41
-2.448435e+00 9.168471e-01 1.047419e+01 55 49 43
-2.364639e+00 9.623419e-01 1.027447e+01 62 50 41
-2.475587e+00 9.423694e-01 1.047664e+01 65 55 45
-2.445909e+00 9.550820e-01 1.047217e+01 55 45 40
-2.445909e+00 9.550820e-01 1.047217e+01 55 45 40
-2.370666e+00 9.945444e-01 1.034096e+01 61 54 46
-2.370666e+00 9.945444e-01 1.034096e+01 61 54 46
-3.753251e+00 6.549018e-01 9.883200e+00 169 161 147
-2.286506e+00 1.061647e+00 1.013232e+01 101 83 59
-4.576516e+00 5.532441e-01 1.067504e+01 168 164 155
-2.597382e+00 1.085033e+00 1.082989e+01 58 46 28
-2.597382e+00 1.085033e+00 1.082989e+01 58 46 28
-4.243297e+00 7.023083e-01 9.890186e+00 160 157 141
-5.260729e+00 4.832296e-01 1.105857e+01 106 108 70
-2.589084e+00 1.239871e+00 1.087070e+01 88 78 66
-2.246708e+00 1.381918e+00 1.015807e+01 73 58 47
-2.549173e+00 1.299907e+00 1.083136e+01 61 47 39
-5.741555e+00 6.058278e-01 1.080535e+01 111 124 42
-2.319031e+00 1.422620e+00 1.038884e+01 53 40 32
-2.531828e+00 1.394855e+00 1.084604e+01 58 41 31
-2.531828e+00 1.394855e+00 1.084604e+01 58 41 31
-5.599541e+00 9.873916e-01 9.500527e+00 110 115 43
-5.599541e+00 9.873916e-01 9.500527e+00 110 115 43
-2.424087e+00 1.535857e+00 1.069952e+01 46 44 32
-2.493007e+00 1.534071e+00 1.085114e+01 36 32 21
-2.403679e+00 1.584024e+00 1.066039e+01 45 42 33
-2.364886e+00 1.607419e+00 1.058132e+01 65 60 54
-2.287409e+00 1.652264e+00 1.040244e+01 46 40 26
-2.315673e+00 1.737396e+00 1.052732e+01 56 53 47
-2.315673e+00 1.737396e+00 1.052732e+01 56 53 47
-6.704954e+00 1.205791e+00 8.888256e+00 116 108 93
-2.218160e+00 1.835438e+00 1.029695e+01 31 29 23
-2.553822e+00 1.678170e+00 1.102978e+01 76 73 64
-2.553822e+00 1.678170e+00 1.102978e+01 76 73 64
-2.407000e+00 1.753398e+00 1.075574e+01 43 41 34
-2.276774e+00 1.830993e+00 1.046637e+01 77 77 65
-7.239576e+00 1.102703e+00 9.498568e+00 109 101 85
-2.381579e+00 1.801958e+00 1.072051e+01 37 34 27
-2.251991e+00 1.874981e+00 1.045964e+01 50 51 38
-7.081489e+00 1.353717e+00 8.505760e+00 122 107 87
-7.542777e+00 1.075219e+00 9.693345e+00 101 97 72
-2.263248e+00 1.905910e+00 1.047466e+01 55 53 44
-2.290734e+00 1.889966e+00 1.053227e+01 49 48 34
-2.225164e+00 1.966035e+00 1.039001e+01 61 61 55
-2.225164e+00 1.966035e+00 1.039001e+01 61 61 55
-2.296812e+00 1.956488e+00 1.058217e+01 65 62 53
-2.296812e+00 1.956488e+00 1.058217e+01 65 62 53
-2.416035e+00 1.890056e+00 1.082692e+01 68 65 53
-2.416035e+00 1.890056e+00 1.082692e+01 68 65 53
-2.369992e+00 1.949485e+00 1.073531e+01 43 43 35
-2.212755e+00 2.045584e+00 1.038265e+01 76 70 59
-2.212755e+00 2.045584e+00 1.038265e+01 76 70 59
-2.351397e+00 2.000871e+00 1.072005e+01 53 52 45
-8.643858e+00 1.994660e+00 6.781140e+00 44 49 40
-8.945542e+00 1.819150e+00 7.637152e+00 110 97 84
-2.573869e+00 1.961293e+00 1.117718e+01 126 103 78
-1.732751e+00 1.792632e-02 1.171195e+01 162 158 159
-8.045429e-01 2.788875e-01 1.043343e+01 70 63 93
-1.407466e+00 1.853835e-01 1.093889e+01 109 95 122
-9.943019e-01 2.562411e-01 1.056803e+01 101 98 117
-1.424107e+00 1.919756e-01 1.092103e+01 95 89 104
-1.483209e+00 2.075543e-01 1.089884e+01 65 57 69
-1.284345e+00 2.612058e-01 1.065393e+01 189 192 167
-1.566322e+00 2.251085e-01 1.082977e+01 64 60 91
-1.715369e+00 2.033288e-01 1.092585e+01 151 157 137
-1.113204e+00 3.360787e-01 1.033443e+01 179 172 165
-1.918974e+00 2.362722e-01 1.089152e+01 62 53 85
-1.757082e+00 2.690676e-01 1.073446e+01 141 139 154
-3.038963e+00 -1.593407e+00 4.571692e+00 95 86 112
-1.387722e+00 3.575827e-01 1.033058e+01 121 115 118
-1.376642e+00 3.616817e-01 1.029647e+01 123 117 121
-1.692981e+00 3.066235e-01 1.059260e+01 106 109 126
-1.618345e+00 3.405884e-01 1.045657e+01 149 155 129
-1.681438e+00 3.357963e-01 1.048735e+01 92 90 112
-1.387325e+00 3.975922e-01 1.017997e+01 110 107 121
-5.796177e-01 5.627118e-01 9.444013e+00 41 51 72
-1.430783e+00 4.022750e-01 1.021730e+01 168 168 141
-5.012600e-01 5.898429e-01 9.312505e+00 57 70 93
-4.893317e-01 6.007192e-01 9.330461e+00 101 106 114
-1.452028e+00 4.141856e-01 1.015448e+01 68 65 85
-1.092927e+00 5.378496e-01 9.685249e+00 145 121 106
-2.878097e+00 4.690556e-01 1.060877e+01 113 109 84
-1.722272e+00 8.062540e-01 8.907176e+00 167 171 187
-1.715772e+00 8.203851e-01 8.896026e+00 96 115 145
-2.535971e+00 6.946527e-01 1.053664e+01 67 54 44
-2.338323e+00 7.289935e-01 1.011799e+01 69 54 44
-2.338323e+00 7.289935e-01 1.011799e+01 69 54 44
-1.067205e+00 1.063400e+00 7.938698e+00 136 149 165
-2.457972e+00 8.750235e-01 1.045233e+01 55 39 24
-2.425164e+00 9.637263e-01 1.043226e+01 46 37 25
-1.908113e+00 1.089027e+00 8.013859e+00 185 198 206
-2.108844e+00 1.058486e+00 8.142041e+00 113 127 149
-2.083082e+00 1.072763e+00 8.110248e+00 193 195 197
-1.707662e+00 1.174204e+00 7.743269e+00 119 135 165
-2.156086e+00 1.088668e+00 8.059396e+00 119 126 140
-2.614691e+00 1.041163e+00 1.084343e+01 52 41 28
-2.311517e+00 1.242675e+00 1.028254e+01 105 89 71
-2.311517e+00 1.242675e+00 1.028254e+01 105 89 71
-2.284371e+00 1.358450e+00 1.027318e+01 69 52 37
-2.377923e+00 1.348493e+00 1.050540e+01 64 54 36
-2.377923e+00 1.348493e+00 1.050540e+01 64 54 36
-5.227961e+00 9.279771e-01 9.557342e+00 101 112 39
-2.424216e+00 1.569520e+00 1.071450e+01 68 68 58
-2.339947e+00 1.619372e+00 1.052852e+01 78 74 63
-2.339947e+00 1.619372e+00 1.052852e+01 78 74 63
-2.248535e+00 1.665018e+00 1.032886e+01 77 74 65
-2.271503e+00 1.695003e+00 1.039420e+01 59 57 50
-2.271503e+00 1.695003e+00 1.039420e+01 59 57 50
-6.365052e+00 1.134927e+00 8.983505e+00 86 74 58
-2.321257e+00 1.762290e+00 1.055405e+01 62 63 54
-2.282006e+00 1.889363e+00 1.050156e+01 60 60 50
-2.354393e+00 1.852763e+00 1.067323e+01 72 68 58
-2.211339e+00 1.972549e+00 1.036502e+01 58 55 48
-2.211339e+00 1.972549e+00 1.036502e+01 58 55 48
-2.266314e+00 1.941281e+00 1.048073e+01 66 66 55
-2.473083e+00 1.891211e+00 1.095115e+01 65 63 52
-2.258563e+00 2.039707e+00 1.051890e+01 64 61 52
-8.168822e+00 1.760882e+00 7.425849e+00 98 87 76
-2.409426e+00 1.968035e+00 1.083248e+01 21 20 14
-2.430655e+00 1.956850e+00 1.086688e+01 20 19 14
-1.158612e+00 -1.305900e-01 9.440394e+00 115 108 105
-5.029702e-01 5.081009e-01 9.560465e+00 117 118 120
-4.091016e-01 5.348589e-01 9.444191e+00 76 92 106
-1.610776e+00 3.284226e-01 1.049021e+01 62 57 84
-5.984225e-01 5.280123e-01 9.550439e+00 81 46 60
-6.310898e-01 5.312954e-01 9.580016e+00 124 69 78
-6.644285e-01 5.371969e-01 9.555204e+00 127 117 129
-1.696532e+00 3.475952e-01 1.046380e+01 129 127 142
-4.402702e-01 5.942510e-01 9.289579e+00 114 119 118
-6.224691e-01 5.873958e-01 9.370603e+00 93 104 111
-5.566221e-01 6.044737e-01 9.296083e+00 128 117 131
-1.122209e+00 5.092505e-01 9.767416e+00 50 51 46
-1.132527e+00 5.419676e-01 9.677242e+00 87 84 77
-7.039263e-01 6.924584e-01 9.066006e+00 157 174 195
-7.039263e-01 6.924584e-01 9.066006e+00 157 174 195
-1.180286e+00 6.137535e-01 9.442546e+00 101 117 137
-1.018746e+00 9.436072e-01 8.315183e+00 186 196 213
-2.582294e+00 8.508368e-01 1.069683e+01 97 84 65
-1.893458e+00 1.025599e+00 8.215223e+00 198 207 225
-1.646379e+00 1.140643e+00 7.819093e+00 132 142 167
-1.647005e+00 1.153253e+00 7.805280e+00 183 189 205
-1.921139e+00 1.087454e+00 8.025478e+00 109 125 150
-2.282684e+00 1.038188e+00 1.013140e+01 45 31 21
-2.015662e+00 1.107979e+00 7.977657e+00 131 135 149
-3.770665e+00 6.582055e-01 9.927393e+00 79 75 76
-2.026427e+00 1.130856e+00 7.920412e+00 114 130 141
-3.770550e+00 6.760458e-01 9.880399e+00 156 157 142
-2.087354e+00 1.138033e+00 7.887112e+00 180 181 188
-2.261786e+00 1.173499e+00 7.848511e+00 113 118 131
-2.261786e+00 1.173499e+00 7.848511e+00 113 118 131
-2.345556e+00 1.201158e+00 7.778849e+00 182 189 205
-2.425450e+00 1.643259e+00 1.074604e+01 20 18 10
-2.404288e+00 1.795907e+00 1.076291e+01 20 21 15
-2.355972e+00 1.992631e+00 1.073126e+01 27 25 18
-2.450759e+00 1.938812e+00 1.092315e+01 26 25 17
-2.418559e+00 1.959247e+00 1.086032e+01 20 20 12
8.655431e+00 7.816265e+00 -5.896172e+00 183 177 216
8.750945e+00 6.583956e+00 -7.461745e+00 32 35 44
7.547585e+00 9.608003e+00 -1.555025e+01 85 89 100
8.920925e+00 5.940961e+00 -8.448486e+00 202 211 228
1.276291e+01 9.154537e+00 -1.894242e+01 255 254 255
8.766553e+00 7.923153e+00 -6.546227e+00 253 254 253
8.872795e+00 6.424772e+00 -7.794448e+00 22 43 54
8.837891e+00 6.654072e+00 -7.351003e+00 254 254 254
8.792579e+00 6.778470e+00 -7.720753e+00 254 255 251
8.538112e+00 7.981422e+00 -6.668848e+00 255 254 255
8.743961e+00 8.304355e+00 -6.363431e+00 127 125 121
8.743961e+00 8.304355e+00 -6.363431e+00 127 125 121
-2.696880e+00 1.634445e+00 1.103277e+01 93 84 59
8.704718e+00 6.116779e+00 -7.858367e+00 173 166 209
5.540535e+00 9.557075e+00 -2.116004e+01 124 111 98
-3.800803e-01 9.824823e+00 -1.936823e+01 130 145 178
-2.772872e+00 1.295964e+00 1.090710e+01 58 52 34
7.530600e+00 8.096003e+00 -1.788606e+01 104 97 109
8.785426e+00 6.315077e+00 -7.912624e+00 116 123 143
-4.734612e-01 9.553044e+00 -1.990164e+01 244 232 251
-4.867124e-01 1.142063e+01 -1.895980e+01 32 48 65
-2.741098e+00 1.867625e+00 1.107912e+01 22 18 16
-2.785776e+00 1.538339e+00 1.095941e+01 46 40 35
-2.820253e+00 1.653418e+00 1.097263e+01 26 23 13
-2.820253e+00 1.653418e+00 1.097263e+01 26 23 13
-1.619013e+00 1.032677e+01 -2.188690e+01 72 90 118
-2.931174e+00 4.914850e-01 1.060705e+01 93 80 64
-2.748256e+00 1.631431e+00 1.101302e+01 33 29 17
1.083484e+00 1.117849e+01 -2.235612e+01 255 254 254
5.211872e+00 1.100088e+01 -1.946291e+01 88 87 85
5.932289e+00 7.475560e+00 -8.081989e+00 63 64 70
2.856519e+00 1.194064e+01 -1.968500e+01 126 127 151
1.048314e+00 1.198446e+01 -2.091998e+01 250 255 254
5.877219e+00 7.372367e+00 -8.144724e+00 65 70 73
5.877219e+00 7.372367e+00 -8.144724e+00 65 70 73
1.214582e+00 1.024175e+01 -2.273053e+01 246 244 252
3.517506e+00 1.266062e+01 -2.160896e+01 82 77 84
-2.896066e+00 9.752604e-01 1.075541e+01 107 95 75
7.137392e+00 1.008738e+01 -2.104888e+01 228 238 255
5.126735e-01 1.021136e+01 -2.066623e+01 182 193 236
8.280459e-01 9.962353e+00 -2.092715e+01 17 27 32
1.016895e+00 1.018901e+01 -2.078396e+01 196 190 247
1.047797e+00 1.024676e+01 -2.045559e+01 22 36 36
-2.743103e+00 1.871626e+00 1.108234e+01 20 18 15
9.001147e+00 5.997738e+00 -8.040301e+00 96 105 109
7.062991e-01 1.020980e+01 -2.159584e+01 134 148 178
-2.762941e+00 1.929761e+00 1.108506e+01 17 18 12
-2.797416e+00 1.534914e+00 1.096187e+01 90 79 59
-2.842776e+00 1.943543e+00 1.103972e+01 76 70 63
2.173614e+00 1.256682e+01 -2.505954e+01 255 255 255
-2.719659e+00 1.008197e-01 1.162652e+01 137 139 103
5.633557e-01 1.186856e+01 -2.006378e+01 37 44 53
-2.757360e+00 1.692905e+00 1.102736e+01 23 24 21
2.886503e+00 1.131791e+01 -2.424655e+01 120 163 185
-2.688294e+00 1.306475e+00 1.096058e+01 99 90 71
-6.263738e+00 9.161648e+00 -1.300075e+01 14 14 14
-1.831212e+01 7.783244e+00 -2.751887e+00 3 3 3
-1.738321e+01 7.100068e+00 -5.786756e+00 6 6 8
-1.930931e+01 5.409423e+00 -1.202274e+00 5 4 5
-1.944334e+01 5.355636e+00 -1.036988e+00 3 7 7
1.072681e+00 1.020560e+01 -2.108711e+01 198 196 248
-1.944279e+01 5.402620e+00 -1.171518e+00 93 81 81
-5.626984e-01 1.154949e+01 -2.100112e+01 247 255 255
-3.030456e+00 4.403946e-02 1.188472e+01 148 144 122
-1.727098e+01 6.543595e+00 -5.905884e+00 58 57 55
9.190832e+00 6.616269e+00 -6.002194e+00 255 255 255
8.150481e+00 5.639644e+00 -8.662274e+00 11 11 11
8.619378e+00 5.851410e+00 -8.414901e+00 176 187 207
5.727238e+00 1.045020e+01 -1.799333e+01 71 65 62
-1.282522e+00 -1.198337e-01 1.190930e+01 45 32 51
-3.444329e-01 2.776507e-01 1.045737e+01 145 141 130
9.812724e-02 3.895998e-01 9.890802e+00 36 27 25
8.636102e+00 8.662275e+00 -7.452487e+00 142 141 147
-8.464414e-01 -4.978644e-02 1.153298e+01 40 27 41
1.247402e+01 5.552759e+00 -8.861375e+00 189 198 226
1.008744e+01 6.152548e+00 -5.769158e+00 255 255 255
6.116418e+00 7.494847e+00 -8.279396e+00 52 50 49
9.912224e+00 6.806801e+00 -5.233913e+00 254 255 253
9.497699e+00 7.730104e+00 -4.269970e+00 255 255 255
-2.829862e+00 1.956537e+00 1.106551e+01 62 48 44
1.608866e+01 6.779651e+00 -8.333090e+00 11 12 14
1.853042e+01 9.129253e+00 -1.411867e+01 189 188 175
8.866406e+00 7.267013e+00 -4.124598e+00 161 156 157
-1.621947e+00 1.914053e-01 1.087480e+01 164 166 172
-3.724534e+00 8.775244e-01 9.198982e+00 172 171 167
1.100711e+01 3.688511e+00 -3.615446e+00 74 73 79
1.060722e+01 3.790009e+00 -4.148462e+00 95 89 95
1.913183e+01 6.852223e+00 -1.590252e+01 62 56 58
9.145919e+00 6.728143e+00 -8.093681e+00 30 34 37
6.552677e+00 9.634823e+00 -1.539522e+01 255 255 255
1.129305e+01 7.908470e+00 -6.265247e+00 152 143 143
8.752333e+00 7.552879e+00 -3.765918e+00 255 253 252
1.229554e-01 2.670387e-01 1.035987e+01 138 136 125
8.452952e+00 2.520475e+00 5.046214e-01 37 36 37
8.452952e+00 2.520475e+00 5.046214e-01 37 36 37
6.116167e+00 5.956938e+00 -9.937675e+00 90 88 93
1.416146e+01 4.557943e+00 -5.618850e+00 60 59 73
9.090619e+00 5.985446e+00 -8.653689e+00 213 218 247
1.178864e+01 6.468565e+00 -7.668970e+00 255 250 253
8.901524e+00 7.989193e+00 -6.795448e+00 255 254 252
8.025659e+00 8.489714e+00 -7.548312e+00 24 25 31
8.953254e+00 8.407836e+00 -7.284625e+00 166 160 172
-7.608776e-01 4.840361e-01 9.731330e+00 177 181 194
-2.784416e+00 1.913508e+00 1.106736e+01 13 12 8
1.064567e+01 4.125671e+00 -4.186941e+00 111 105 125
1.196015e+01 5.074968e+00 -8.479123e+00 123 122 130
-3.623178e+00 7.352423e+00 -1.131486e+01 103 94 98
6.575761e+00 7.684092e+00 -1.522977e+01 15 21 24
7.831248e+00 9.761145e+00 -1.856942e+01 78 84 96
6.311316e+00 1.041511e+01 -1.800230e+01 181 201 224
8.839042e+00 7.553768e+00 -6.912672e+00 253 255 253
7.196821e+00 7.917812e+00 -7.411795e+00 137 116 133
2.133032e+00 1.110197e+01 -1.639231e+01 40 38 43
-1.243365e+00 -1.455318e-01 1.193144e+01 30 25 17
-1.034899e+00 2.000256e-01 1.074441e+01 67 72 92
-2.844104e+00 6.400344e-01 1.068833e+01 32 31 20
-4.384138e+00 7.803290e-01 9.794585e+00 156 152 144
-1.246986e+00 6.277628e-01 9.354331e+00 42 42 30
-2.842067e+00 1.351949e+00 1.089014e+01 60 59 54
9.427273e+00 3.916440e+00 -2.473125e+00 24 29 38
6.076746e+00 6.348729e+00 -9.742808e+00 58 62 77
4.778226e+00 9.403918e+00 -1.908254e+01 86 85 92
1.875197e+01 8.089250e+00 -1.518340e+01 205 217 236
1.554505e+01 6.957844e+00 -7.757334e+00 66 50 55
1.097500e+00 -1.941820e+00 9.030951e+00 115 113 97
-1.621238e+00 2.084343e-01 1.085222e+01 84 86 121
