ply
format ascii 1.0
element face 0
property list uchar int vertex_indices
element vertex 734
property float x
property float y
property float z
property uchar diffuse_red
property uchar diffuse_green
property uchar diffuse_blue
end_header
-3.682479e+00 2.065544e-01 6.142244e+00 126 128 124
-3.555428e+00 3.528993e-01 5.640201e+00 164 165 157
-3.394919e+00 8.740110e-03 6.825902e+00 31 26 30
-2.636699e+00 9.664010e-01 6.890655e+00 16 15 12
-2.657603e+00 9.719882e-01 6.878321e+00 17 14 11
-2.626698e+00 9.353991e-01 6.887463e+00 92 83 71
-2.012186e+00 3.025615e-01 5.403565e+00 170 170 187
-2.663323e+00 9.294164e-01 6.860471e+00 94 92 79
-2.663323e+00 9.294164e-01 6.860471e+00 94 92 79
-2.676945e+00 9.329101e-01 6.851627e+00 91 89 76
-2.676945e+00 9.329101e-01 6.851627e+00 91 89 76
-2.631034e+00 9.555214e-01 6.890946e+00 95 91 81
-2.652118e+00 9.610315e-01 6.877654e+00 90 88 73
-2.673658e+00 9.666992e-01 6.864030e+00 92 87 76
-2.582381e+00 9.093842e-01 6.908455e+00 105 100 92
-2.640303e+00 9.240418e-01 6.874423e+00 97 92 76
-2.646946e+00 9.278503e-01 6.872333e+00 15 14 11
-2.591262e+00 9.156507e-01 6.905210e+00 96 88 77
-2.634207e+00 9.246197e-01 6.880921e+00 20 16 12
-2.669608e+00 9.348021e-01 6.858378e+00 16 15 13
-2.669608e+00 9.348021e-01 6.858378e+00 16 15 13
-2.688414e+00 9.738000e-01 6.856221e+00 16 16 8
-2.677934e+00 9.793422e-01 6.865933e+00 17 16 11
-2.677934e+00 9.793422e-01 6.865933e+00 17 16 11
-2.675309e+00 9.484106e-01 6.857982e+00 93 90 81
-2.675309e+00 9.484106e-01 6.857982e+00 93 90 81
-2.580984e+00 9.244576e-01 6.914918e+00 95 93 75
-2.580984e+00 9.244576e-01 6.914918e+00 95 93 75
-2.661556e+00 9.449464e-01 6.866397e+00 86 85 68
-2.629438e+00 9.715818e-01 6.896079e+00 90 84 73
-2.629438e+00 9.715818e-01 6.896079e+00 90 84 73
-2.650601e+00 9.769779e-01 6.883438e+00 90 88 71
-2.671966e+00 9.828649e-01 6.869581e+00 89 85 73
-3.126950e+00 -1.512764e-02 6.903188e+00 104 94 95
-2.654142e+00 9.264029e-01 6.865694e+00 78 75 68
-2.629790e+00 9.204500e-01 6.880610e+00 92 91 83
-2.601259e+00 9.634604e-01 6.909775e+00 22 19 9
-2.611854e+00 9.328426e-01 6.896537e+00 85 77 74
-2.611854e+00 9.328426e-01 6.896537e+00 85 77 74
-2.686887e+00 9.872364e-01 6.862764e+00 18 12 2
-3.633172e+00 -3.424514e-02 6.951130e+00 47 37 63
-2.663097e+00 9.729073e-01 6.791451e+00 81 79 67
-2.570872e+00 9.057426e-01 6.914566e+00 88 84 73
-2.601667e+00 9.505268e-01 6.912361e+00 23 19 16
-2.586622e+00 9.127187e-01 6.908124e+00 21 18 11
-2.586622e+00 9.127187e-01 6.908124e+00 21 18 11
-2.031364e+00 1.261683e-02 6.452117e+00 101 98 107
-2.596081e+00 9.139336e-01 6.909819e+00 29 24 17
-9.248031e+01 1.613291e+02 -4.705852e+02 33 45 48
-2.644593e+00 9.402535e-01 6.877212e+00 99 94 82
-3.637000e+00 4.185443e-01 5.448710e+00 178 177 176
-3.279981e+00 1.157057e-02 6.808382e+00 72 48 58
-2.631852e+00 7.954695e-01 6.846156e+00 95 82 58
-2.674519e+00 8.071535e-01 6.810043e+00 92 80 60
-2.629790e+00 9.204500e-01 6.880610e+00 92 91 83
-2.576438e+00 9.214239e-01 6.915944e+00 18 15 8
-2.574696e+00 9.551813e-01 6.929824e+00 17 14 11
-2.667271e+00 9.793370e-01 6.870893e+00 16 16 6
-2.660484e+00 8.047520e-01 6.820717e+00 95 81 62
-1.965756e+00 -7.947586e-02 6.751619e+00 54 55 75
-2.600235e+00 8.214879e-01 6.871829e+00 34 33 21
-2.647777e+00 8.569740e-01 6.842926e+00 20 19 15
-2.616358e+00 9.427335e-01 6.893417e+00 14 14 13
-2.639438e+00 6.811125e-01 6.795749e+00 94 80 59
-2.601814e+00 -1.180273e-01 7.184086e+00 56 43 68
-2.625133e+00 4.859290e-01 6.739062e+00 96 83 58
-2.665261e+00 7.948167e-01 6.820005e+00 25 23 21
-2.691484e+00 9.470743e-01 6.840551e+00 14 15 9
-2.593718e+00 9.383006e-01 6.908829e+00 15 15 13
-2.641988e+00 6.324627e-01 6.777270e+00 78 70 59
-2.610096e+00 7.783182e-01 6.843823e+00 19 19 18
-2.610096e+00 7.783182e-01 6.843823e+00 19 19 18
-2.600874e+00 8.682973e-01 6.885640e+00 20 18 4
-2.623828e+00 -1.143873e-01 7.170926e+00 57 46 68
-2.674069e+00 6.205730e-01 6.752795e+00 43 38 28
-2.688405e+00 7.162243e-01 6.770958e+00 97 87 60
-2.674915e+00 8.570586e-01 6.826651e+00 51 47 38
-2.603984e+00 8.393050e-01 6.870849e+00 48 46 37
-2.671663e+00 4.952280e-01 6.709472e+00 100 84 59
-2.662172e+00 4.940591e-01 6.715822e+00 95 83 60
-2.696867e+00 5.158036e-01 6.700279e+00 91 82 60
-2.681538e+00 5.118881e-01 6.707363e+00 97 88 64
-2.617487e+00 6.758948e-01 6.805886e+00 92 81 57
-2.606172e+00 6.736512e-01 6.812249e+00 97 84 62
-2.606172e+00 6.736512e-01 6.812249e+00 97 84 62
-2.627238e+00 7.502052e-01 6.829558e+00 57 48 40
-2.165426e+00 -1.563673e-01 7.170339e+00 95 91 81
-2.689686e+00 7.470873e-01 6.786785e+00 92 80 56
-2.570817e+00 9.517861e-01 6.928923e+00 86 82 71
-2.637376e+00 7.400851e-01 6.811149e+00 16 16 18
-2.605526e+00 9.594592e-01 6.910442e+00 90 86 73
-2.610763e+00 9.217144e-01 6.895742e+00 45 38 31
-2.651304e+00 9.503142e-01 6.871114e+00 15 14 12
-2.635735e+00 9.461383e-01 6.885197e+00 14 14 13
-2.681021e+00 9.611354e-01 6.859957e+00 15 15 15
-2.661454e+00 7.182828e-01 6.792252e+00 58 52 42
-2.600235e+00 8.214879e-01 6.871829e+00 34 33 21
-1.413768e+00 -9.369622e-03 6.218665e+00 73 85 111
-2.715069e+00 3.827332e-01 6.644476e+00 58 55 42
-2.715069e+00 3.827332e-01 6.644476e+00 58 55 42
-2.745338e+00 4.204949e-01 6.635387e+00 98 89 66
-2.684929e+00 6.233035e-01 6.745823e+00 37 29 25
-2.697604e+00 7.262427e-01 6.770152e+00 34 28 23
-2.648296e+00 7.625019e-01 6.816886e+00 93 80 61
-2.699100e+00 7.912136e-01 6.792414e+00 95 81 58
-2.687550e+00 7.885543e-01 6.799345e+00 92 79 59
-2.638646e+00 7.763644e-01 6.824685e+00 92 79 64
-2.607074e+00 7.685075e-01 6.848285e+00 95 82 63
-2.693351e+00 9.875144e-01 6.854348e+00 97 92 79
-2.704665e+00 3.992697e-01 6.656175e+00 98 89 65
-2.634955e+00 6.742256e-01 6.795900e+00 43 39 32
-2.628606e+00 6.787949e-01 6.802406e+00 92 81 58
-2.597022e+00 6.709955e-01 6.817172e+00 96 81 59
-2.706593e+00 7.457950e-01 6.774883e+00 30 26 21
-2.709002e+00 7.518997e-01 6.772049e+00 87 76 57
-2.672595e+00 7.372796e-01 6.792545e+00 47 41 35
-2.657341e+00 7.335084e-01 6.801014e+00 37 33 28
-2.702370e+00 7.625134e-01 6.777210e+00 87 79 55
-2.663718e+00 7.531721e-01 6.802773e+00 89 84 58
-2.613596e+00 7.408590e-01 6.833153e+00 89 78 57
-2.596608e+00 7.663611e-01 6.853168e+00 93 80 60
-2.587485e+00 7.636736e-01 6.857949e+00 97 80 67
-2.617667e+00 8.126744e-01 6.854134e+00 56 54 46
-2.675309e+00 9.484106e-01 6.857982e+00 93 90 81
-2.716285e+00 1.172963e-01 6.549239e+00 44 38 26
-2.714330e+00 6.795982e-01 6.743515e+00 91 84 62
-2.594564e+00 6.637208e-01 6.821254e+00 32 28 17
-2.648544e+00 7.370549e-01 6.806430e+00 94 79 58
-2.620186e+00 7.780596e-01 6.841102e+00 90 79 69
-2.623957e+00 7.901525e-01 6.839116e+00 26 18 16
-2.580591e+00 9.158466e-01 6.913599e+00 88 85 69
-3.580475e+00 2.122993e-01 6.111029e+00 62 59 65
6.643713e+00 6.521250e+00 -1.938381e+01 78 72 72
-2.693856e+00 6.052875e-01 6.738412e+00 42 35 28
-2.605866e+00 6.063341e-01 6.792222e+00 50 44 33
-2.664140e+00 3.960206e-01 6.683341e+00 62 52 45
-2.711662e+00 5.311441e-01 6.694965e+00 96 83 58
-2.688042e+00 5.888521e-01 6.735645e+00 98 87 65
-2.713271e+00 6.369804e-01 6.728868e+00 94 84 61
-2.717353e+00 7.540098e-01 6.766870e+00 91 81 69
-2.636155e+00 7.277353e-01 6.817190e+00 27 21 9
-2.674176e+00 7.434064e-01 6.789391e+00 87 79 58
-2.667105e+00 7.834255e-01 6.811279e+00 91 81 60
-2.503505e+00 -1.386260e-01 7.231001e+00 66 53 69
-2.682761e+00 9.535834e-02 6.561188e+00 58 55 47
-2.654037e+00 1.971033e-01 6.615507e+00 70 66 54
-1.797402e+00 8.181780e-02 6.116594e+00 88 97 113
-2.721240e+00 5.966838e-01 6.712034e+00 93 84 60
-2.675352e+00 7.978763e-01 6.807761e+00 19 19 17
-2.585989e+00 7.802559e-01 6.862775e+00 91 82 60
-2.645639e+00 9.735848e-01 6.885787e+00 15 16 9
-2.674256e+00 7.216406e-01 6.783958e+00 91 82 63
1.078202e+01 8.713405e+00 -2.793860e+01 7 7 7
-2.600787e+00 5.230260e-01 6.769282e+00 98 84 58
-3.577187e+00 2.246912e-01 6.102614e+00 152 149 134
-3.556069e+00 3.999148e-01 5.485642e+00 170 168 160
-2.577051e+00 7.624402e-01 6.864906e+00 92 85 65
-2.582203e+00 7.753263e-01 6.864398e+00 31 26 21
-2.614608e+00 4.839430e-01 6.742537e+00 86 77 59
2.967752e+01 3.533961e+01 -1.095412e+02 254 254 254
3.013440e+01 5.541592e+01 -1.606108e+02 12 12 12
2.696165e+01 4.275453e+01 -1.491408e+02 19 17 18
6.248256e+00 6.571386e+00 -1.891275e+01 8 8 8
4.164329e+01 8.029829e+01 -2.871792e+02 34 39 37
2.335844e+01 3.878398e+01 -1.105729e+02 86 83 78
2.116102e+01 4.765209e+01 -1.300259e+02 15 17 16
-2.755310e+00 4.001312e-01 6.616866e+00 26 28 25
3.341807e+01 5.299960e+01 -1.777188e+02 66 64 59
2.259686e+01 3.896882e+01 -1.199469e+02 109 104 82
2.259686e+01 3.896882e+01 -1.199469e+02 109 104 82
2.882428e+01 3.805553e+01 -1.153682e+02 203 219 234
-2.616358e+00 9.427335e-01 6.893417e+00 14 14 13
7.703126e+01 1.677379e+02 -5.867675e+02 97 108 122
2.781040e+01 4.855534e+01 -1.608387e+02 70 68 64
3.837423e+01 4.563383e+01 -1.460550e+02 255 254 255
2.644710e+01 4.887452e+01 -1.524160e+02 107 102 82
-3.504011e+00 2.395589e-01 6.002803e+00 154 151 135
-1.833239e+00 -9.033367e-02 6.763125e+00 155 154 154
-2.579076e+00 7.829459e-01 6.871094e+00 97 80 56
6.012352e+00 6.106087e+00 -1.829819e+01 103 93 81
3.653399e+01 5.083290e+01 -1.867834e+02 18 20 17
4.133918e+01 8.612385e+01 -3.102185e+02 160 160 199
2.874117e+01 7.755685e+01 -2.194523e+02 31 35 38
1.205831e+01 1.946682e+01 -4.673810e+01 194 206 232
2.721613e+01 6.840628e+01 -1.847144e+02 44 48 49
3.179940e+01 7.390489e+01 -1.994242e+02 111 121 123
-7.485850e-01 3.764994e-01 4.629099e+00 76 105 114
-2.639623e+00 7.864876e-01 6.833673e+00 23 21 17
4.523182e+01 9.719479e+01 -3.555378e+02 48 63 63
3.408485e+01 4.710160e+01 -1.703816e+02 88 90 95
4.239724e+01 7.508884e+01 -2.694686e+02 29 33 28
3.418956e+01 6.286596e+01 -2.177757e+02 32 35 29
4.186271e+01 8.438053e+01 -2.951049e+02 29 32 33
3.464849e+01 6.546171e+01 -2.234347e+02 89 85 82
3.454518e+01 4.028119e+01 -1.330757e+02 255 255 251
4.258690e+01 5.207251e+01 -1.663294e+02 168 193 210
2.155470e+01 3.896118e+01 -1.060978e+02 21 24 26
2.198501e+01 5.108208e+01 -1.377289e+02 179 188 197
-2.600125e+00 4.800381e-01 6.751810e+00 96 84 68
-2.586000e+00 7.277167e-01 6.858486e+00 19 16 17
7.788795e+00 8.205597e+00 -2.138574e+01 146 147 193
4.321012e+01 8.500154e+01 -3.053823e+02 26 30 27
-6.393055e+00 -1.462660e+01 6.408013e+01 153 162 195
2.596901e+01 3.808208e+01 -1.172423e+02 130 117 122
2.596901e+01 3.808208e+01 -1.172423e+02 130 117 122
2.507648e+01 4.750373e+01 -1.446870e+02 20 20 18
2.606176e+01 4.378432e+01 -1.329521e+02 69 63 59
-3.562755e+00 2.234704e-01 6.081354e+00 94 89 95
-7.261014e-01 3.645320e-01 4.681096e+00 78 90 85
6.416232e+00 7.016053e+00 -1.823583e+01 142 155 188
3.134010e+01 4.167827e+01 -1.432478e+02 45 54 82
3.098895e+01 6.335022e+01 -2.075582e+02 100 93 84
3.526196e+01 4.444114e+01 -1.369409e+02 178 195 212
2.074551e+01 3.810683e+01 -1.020580e+02 130 124 158
-1.763539e+00 2.178084e-01 5.604905e+00 92 101 108
-2.652259e+00 5.470122e-01 6.741749e+00 54 43 36
-2.604953e+00 6.664942e-01 6.812250e+00 39 34 33
-2.604953e+00 6.664942e-01 6.812250e+00 39 34 33
3.524816e+00 1.290613e+02 -3.916211e+02 255 253 255
2.290599e+00 2.981525e+01 -8.167095e+01 255 255 255
3.109596e+00 1.375632e+02 -4.642338e+02 14 14 13
7.003816e+00 9.522354e+01 -3.148615e+02 13 13 15
7.003816e+00 9.522354e+01 -3.148615e+02 13 13 15
3.810118e+00 5.227017e+01 -1.444746e+02 16 16 18
3.547242e-02 3.883933e+01 -1.032181e+02 17 17 21
1.022908e+01 1.610573e+02 -5.717744e+02 254 255 254
-1.096694e+01 1.886391e+02 -5.584820e+02 183 208 249
8.547218e+00 1.602118e+01 -3.453419e+01 14 14 14
2.671434e+01 1.523117e+02 -5.505965e+02 16 20 20
8.630509e+00 7.503083e+01 -2.643944e+02 253 254 252
6.983474e+00 8.506274e+01 -2.588856e+02 31 31 35
3.084270e+01 6.706272e+01 -2.186778e+02 59 58 63
7.945004e+00 8.234101e+01 -2.619396e+02 126 134 140
3.434939e+01 6.936496e+01 -2.141374e+02 10 10 10
1.076470e+01 1.155161e+02 -4.033700e+02 20 22 22
1.076470e+01 1.155161e+02 -4.033700e+02 20 22 22
8.470542e+00 8.867895e+01 -2.606020e+02 248 246 254
1.996187e+01 1.947228e+01 -6.924917e+01 254 250 254
2.225685e+00 1.748854e+02 -6.100968e+02 17 20 21
8.485274e+00 9.193155e+01 -2.874471e+02 126 125 142
2.469487e+01 6.316278e+01 -1.828949e+02 114 116 132
-2.633534e+00 1.921273e-01 6.623230e+00 68 65 55
2.302314e+00 1.960000e+01 -6.448832e+01 140 145 165
-9.432936e+00 9.167675e+01 -3.208362e+02 182 187 216
-2.055772e+01 3.051014e+02 -1.067651e+03 230 227 253
-8.665660e-01 1.828649e+02 -6.351443e+02 242 241 252
-8.665660e-01 1.828649e+02 -6.351443e+02 242 241 252
-4.328113e+00 3.450685e+02 -1.150770e+03 116 144 181
2.458576e+00 2.785066e+02 -9.232767e+02 159 187 230
2.312478e+01 4.258549e+01 -1.139232e+02 33 59 56
-3.472267e+00 2.344580e-01 6.041573e+00 150 146 135
-2.659382e+00 4.449862e-01 6.696146e+00 46 39 35
1.060103e+01 1.113275e+02 -3.974563e+02 243 242 249
8.656917e+00 1.121907e+02 -3.946082e+02 240 239 249
2.511636e+01 4.920801e+01 -1.493390e+02 74 67 64
5.883300e+00 6.963867e+01 -2.060920e+02 238 248 254
2.719370e+01 8.497956e+01 -2.365049e+02 197 169 205
2.078993e+01 3.874047e+01 -1.014763e+02 210 213 225
-3.489905e+00 3.313722e-01 5.695712e+00 105 103 113
-3.467182e+00 3.560639e-01 5.624609e+00 118 123 127
-3.291428e+00 4.719310e-01 5.201590e+00 107 116 135
-2.601830e+00 4.986660e-01 6.757922e+00 95 84 62
-2.634520e+00 8.788134e-01 6.864332e+00 61 61 53
6.367354e+00 7.007615e+00 -1.840904e+01 9 22 20
-1.258848e+00 1.687437e+02 -5.977967e+02 216 211 242
-3.282073e+00 2.186815e-01 6.062661e+00 86 77 87
-1.700263e+00 -4.190379e-02 6.478116e+00 73 81 102
2.857894e+01 6.632574e+01 -1.701003e+02 173 205 220
-1.725317e+00 -1.094949e-01 6.718196e+00 156 157 158
5.840860e+00 2.469008e+01 -6.740460e+01 255 255 255
5.840860e+00 2.469008e+01 -6.740460e+01 255 255 255
2.466618e+01 5.273907e+01 -1.376741e+02 251 247 248
1.056790e+01 1.251637e+01 -3.137218e+01 78 82 91
1.056790e+01 1.251637e+01 -3.137218e+01 78 82 91
9.713612e+00 1.933324e+01 -4.282586e+01 250 250 250
1.431752e+01 1.660601e+01 -5.255623e+01 12 13 15
-1.404238e+01 1.459105e+01 -4.141573e+01 11 11 11
-1.080154e+01 2.067545e+01 -6.384734e+01 17 15 18
-1.511577e+00 1.302802e-02 6.283944e+00 169 169 171
1.778579e+01 1.709361e+01 -5.939843e+01 11 10 12
-4.999790e+00 2.208920e+02 -7.788017e+02 157 181 218
-6.536609e+00 1.861625e+02 -6.301082e+02 17 17 17
1.574375e+01 2.882188e+01 -7.318744e+01 73 72 69
3.922812e+01 8.812880e+01 -2.255227e+02 245 245 254
8.926261e-01 1.645905e+01 -3.205632e+01 150 155 158
-3.824246e+00 2.355773e-01 6.052589e+00 90 88 85
-1.687782e+00 -1.270816e-01 6.748544e+00 163 162 167
1.020542e+01 1.272700e+01 -4.159888e+01 10 11 9
6.251433e+01 1.563816e+02 -5.362541e+02 92 106 124
9.157448e+00 9.094953e+00 -2.349593e+01 219 234 249
-2.605588e+00 4.581878e-01 6.746347e+00 97 87 60
-2.703732e+00 9.667695e-01 6.838458e+00 15 15 13
-1.086143e+01 2.284081e+01 -6.882248e+01 214 216 238
4.880746e+01 1.121304e+02 -4.136621e+02 237 241 253
1.094478e+01 1.561692e+02 -5.398884e+02 185 204 244
-2.904703e+01 5.673446e+01 -1.495104e+02 252 254 253
-2.264083e+00 -1.562005e-01 7.210781e+00 90 82 76
-3.606506e+00 2.756126e-01 5.930492e+00 123 124 129
-1.681196e+00 5.755661e-03 6.337419e+00 159 158 164
-1.787950e+00 3.092567e-02 6.254715e+00 155 155 155
-6.642946e+00 2.599689e+02 -8.085858e+02 87 115 153
-6.642946e+00 2.599689e+02 -8.085858e+02 87 115 153
3.025216e+01 7.346579e+01 -1.869408e+02 108 111 118
2.602825e+01 7.197002e+01 -1.791823e+02 126 124 129
-1.851033e+00 -8.170464e-02 6.679101e+00 149 149 143
-3.609164e+00 2.663242e-01 5.963145e+00 159 153 146
-1.761102e+00 -3.772546e-02 6.492589e+00 59 64 92
9.589232e+00 2.056446e+02 -7.186062e+02 28 41 47
7.409894e+00 7.154552e+01 -2.154254e+02 255 252 255
2.579795e+01 6.776342e+01 -1.921489e+02 123 114 120
-2.441108e+00 -1.527013e-01 7.259141e+00 58 46 70
-3.534457e+00 3.497582e-01 5.663590e+00 164 164 154
-3.536603e+00 3.950062e-01 5.503842e+00 175 171 171
-3.497973e+00 4.206486e-01 5.404062e+00 100 102 126
-1.736349e+00 2.344612e-01 5.540889e+00 73 85 99
-2.586404e+00 6.602219e-01 6.824877e+00 90 82 56
-2.600235e+00 8.214879e-01 6.871829e+00 34 33 21
5.836078e+01 1.511836e+02 -5.100155e+02 90 135 148
5.368139e+00 7.846820e+01 -2.337825e+02 247 250 252
2.511636e+01 4.920801e+01 -1.493390e+02 74 67 64
2.719370e+01 8.497956e+01 -2.365049e+02 197 169 205
3.770281e+01 8.650123e+01 -2.265035e+02 221 220 238
1.876926e+01 5.189173e+01 -1.215316e+02 152 163 184
-2.040434e+00 -8.760716e-02 6.818766e+00 66 67 87
-1.937002e+00 -8.004046e-02 6.726695e+00 50 50 78
-3.581472e+00 2.289965e-01 6.046279e+00 148 144 126
-3.681261e+00 2.907275e-01 5.864417e+00 98 96 109
-1.731224e+00 -4.586661e-02 6.496389e+00 69 73 112
-3.557333e+00 3.809133e-01 5.534716e+00 173 169 166
-3.557333e+00 3.809133e-01 5.534716e+00 173 169 166
-2.583938e+00 6.797841e-01 6.837472e+00 93 84 69
-2.648942e+00 7.783429e-01 6.817361e+00 93 79 56
-2.674915e+00 8.570586e-01 6.826651e+00 51 47 38
-1.760556e+01 2.267569e+01 -6.959766e+01 105 98 111
2.719303e+01 7.107427e+01 -2.045185e+02 58 69 77
3.490370e+01 8.177134e+01 -2.090662e+02 202 208 221
1.779579e+01 4.884389e+01 -1.131335e+02 100 115 126
-3.778631e+00 2.304395e-01 6.083821e+00 83 83 82
-3.315509e+00 2.143624e-01 6.081424e+00 80 70 78
-3.470704e+00 5.006149e-01 5.136385e+00 116 122 135
-3.470704e+00 5.006149e-01 5.136385e+00 116 122 135
-1.735807e+00 2.712377e-02 6.246698e+00 151 155 144
-2.581586e+00 1.000117e+00 6.926753e+00 50 50 37
-2.212971e+01 2.993076e+01 -7.689136e+01 255 255 255
-7.316480e+02 1.546381e+03 -4.535755e+03 255 255 255
5.244188e+01 -6.070601e+01 1.912385e+02 255 255 255
-2.054351e+00 -1.036151e-01 6.939537e+00 157 154 147
-1.833685e+01 2.936544e+02 -9.609241e+02 174 203 247
-2.557728e+00 9.304596e-01 6.929944e+00 15 15 13
1.184260e+01 1.215310e+01 -3.701268e+01 68 69 74
-1.139949e+01 2.012378e+02 -7.096534e+02 156 177 212
-1.929057e+00 -6.648978e-02 6.671905e+00 149 148 143
4.880746e+01 1.121304e+02 -4.136621e+02 237 241 253
-2.006174e+00 -5.460709e-02 6.674672e+00 150 149 145
-1.625507e+00 4.452030e-02 6.147472e+00 167 162 166
-2.614904e+00 3.868360e-01 6.714412e+00 100 86 58
-2.584145e+00 7.409921e-01 6.854376e+00 97 82 62
1.037818e+01 8.108597e+00 -2.689954e+01 98 97 105
1.649759e+03 -1.918157e+03 5.413926e+03 17 16 21
-3.599803e+00 1.895339e-01 6.194661e+00 68 66 69
-1.787950e+00 3.092567e-02 6.254715e+00 155 155 155
-1.780289e+00 8.770554e-02 6.089980e+00 165 164 160
-1.651779e+00 1.102257e-01 5.942282e+00 155 153 141
1.597709e+01 1.311081e+02 -4.464584e+02 203 200 251
-3.350542e+01 6.110133e+01 -1.616372e+02 254 254 252
-3.350542e+01 6.110133e+01 -1.616372e+02 254 254 252
-3.287881e+01 6.233791e+01 -1.645214e+02 23 24 31
-3.984744e+00 1.694552e+01 -3.430133e+01 66 32 32
-2.325227e+00 -1.230469e-01 7.112044e+00 143 142 121
-2.028496e+00 -9.534001e-02 6.866735e+00 154 153 148
-1.892577e+00 -6.916334e-02 6.672991e+00 149 148 145
-1.986843e+00 4.476354e-03 6.460013e+00 168 166 166
-3.433696e+00 2.348059e-01 6.016167e+00 103 104 100
-3.602424e+00 2.497461e-01 5.959354e+00 126 124 132
-1.713951e+00 4.117793e-02 6.210730e+00 156 157 154
-3.256962e+00 4.721690e-01 5.219120e+00 180 183 183
-2.703552e+00 8.042322e-01 6.790988e+00 34 34 35
2.220911e+02 -2.342878e+02 7.644142e+02 110 104 125
1.417369e+02 -1.886418e+02 6.076658e+02 45 72 82
5.340657e+00 9.323969e+01 -2.972231e+02 252 255 255
-3.387592e+01 5.982494e+01 -1.583294e+02 27 29 47
2.385975e+01 6.226941e+01 -1.476027e+02 126 134 137
-2.583799e+00 -1.224819e-01 7.191444e+00 55 42 66
-1.899326e+00 -9.025473e-02 6.759097e+00 148 149 147
-1.933574e+00 -8.439378e-02 6.739870e+00 146 146 149
-3.511883e+00 2.345462e-01 6.030373e+00 106 102 108
-3.511883e+00 2.345462e-01 6.030373e+00 106 102 108
-1.734623e+00 4.716804e-02 6.198552e+00 159 156 158
-1.593892e+00 1.187540e-01 5.884052e+00 146 143 143
-3.579561e+00 3.890949e-01 5.508860e+00 168 171 165
-3.287867e+00 3.810299e-01 5.502824e+00 103 110 129
-1.570132e+01 1.850031e+01 -5.551645e+01 94 89 101
4.965588e+00 1.740568e+02 -6.017983e+02 127 139 178
-2.420405e+03 2.305405e+03 -7.450290e+03 163 151 174
1.727900e+02 -2.341203e+02 7.446534e+02 255 252 252
7.140661e+00 9.169233e+00 -1.964462e+01 14 15 20
-1.329817e+01 1.835658e+01 -4.308514e+01 249 252 249
4.772887e+01 1.248921e+02 -3.678985e+02 69 71 90
2.170673e+01 6.359902e+01 -1.496716e+02 127 148 159
-2.417939e+00 -1.576370e-01 7.270467e+00 62 53 65
-3.747006e+00 1.079464e-01 6.514415e+00 125 116 110
-3.915011e+00 1.342054e-01 6.433235e+00 101 86 90
-1.937002e+00 -8.004046e-02 6.726695e+00 50 50 78
-2.034636e+00 1.772908e-03 6.484948e+00 79 77 95
-1.469763e+00 2.269293e-02 6.137076e+00 166 162 161
-3.496622e+00 3.682229e-01 5.556553e+00 167 166 156
-3.479886e+00 3.847277e-01 5.541774e+00 171 169 169
1.915435e+00 1.557136e+02 -5.503767e+02 212 201 243
2.749571e+02 -2.842361e+02 9.314372e+02 94 98 134
-5.780757e+00 2.836031e+01 -8.385006e+01 155 147 185
-2.127755e+01 2.348517e+01 -6.366750e+01 111 102 143
-1.010317e+01 1.954680e+01 -4.245499e+01 61 59 72
-3.476567e+00 1.709102e-01 6.250054e+00 70 65 81
-3.370678e+00 1.678857e-01 6.252398e+00 81 74 82
-1.883097e+00 9.178995e-02 6.113949e+00 93 89 119
-1.638266e+00 1.045846e-01 5.958797e+00 79 75 85
-3.562135e+00 3.440542e-01 5.674697e+00 162 163 152
-3.413393e+00 3.384208e-01 5.683063e+00 168 168 163
-3.261405e+00 3.800663e-01 5.506469e+00 114 117 142
-3.181321e+00 4.614128e-01 5.201667e+00 108 119 136
-3.181321e+00 4.614128e-01 5.201667e+00 108 119 136
-3.317948e+00 4.933291e-01 5.119275e+00 107 115 129
-6.646754e-01 1.598664e+00 1.090790e-01 79 73 64
-1.805474e+01 1.648763e+01 -4.726102e+01 53 48 50
-5.782987e+00 2.819158e+01 -8.434610e+01 20 41 45
-1.950404e+00 1.340800e-02 6.411829e+00 144 148 151
-1.854472e+00 1.071456e-01 6.047857e+00 100 100 118
-1.854472e+00 1.071456e-01 6.047857e+00 100 100 118
-3.239137e+00 3.625957e-01 5.553312e+00 104 109 128
-3.211840e+00 3.649677e-01 5.547091e+00 110 112 136
-1.486307e+00 5.395379e-01 4.351693e+00 119 130 129
-1.507050e+01 1.325366e+01 -2.620359e+01 250 248 255
-5.982503e+00 2.549367e+01 -7.552294e+01 17 20 28
-2.571984e+00 9.802425e-01 6.939381e+00 14 14 12
-2.610642e+00 3.534489e-01 6.698463e+00 20 20 18
-2.168166e+00 -8.434553e-02 6.878083e+00 163 159 156
-1.439228e+01 6.876754e+00 -1.439082e+01 87 83 72
-1.911004e+01 1.775888e+01 -5.060883e+01 11 11 11
-1.015469e+01 1.933686e+01 -5.536450e+01 27 27 29
-2.195546e+00 -9.634544e-02 6.939306e+00 79 73 90
-1.689899e+00 2.819913e-02 6.271963e+00 161 161 161
-1.369833e+00 1.785822e-02 6.115297e+00 168 168 170
-1.793099e+00 1.231176e-01 5.998481e+00 170 169 168
-1.681872e+00 1.305282e-01 5.939631e+00 80 85 89
-2.506347e+00 9.556904e-01 6.892319e+00 28 29 24
1.483140e+01 1.648446e+01 -5.623816e+01 158 160 173
-6.500727e+00 2.159587e+01 -6.852297e+01 22 22 24
-3.345986e+01 2.536828e+01 -7.340663e+01 9 9 9
3.764229e+01 -1.437889e+02 4.872525e+02 255 255 255
-4.410088e+01 1.060845e+02 -3.375851e+02 255 255 255
-3.465676e+01 3.002586e+01 -8.244417e+01 21 25 29
1.714765e+01 2.380805e+01 -6.430568e+01 255 254 255
-2.337784e+00 -1.399483e-01 7.138971e+00 147 144 125
-1.929057e+00 -6.648978e-02 6.671905e+00 149 148 143
-1.969249e+00 -5.236433e-02 6.634226e+00 108 110 111
-1.635405e+00 -6.323757e-02 6.514802e+00 109 111 129
-1.635405e+00 -6.323757e-02 6.514802e+00 109 111 129
-1.286431e+00 -5.755338e-02 6.328139e+00 166 167 170
-1.286431e+00 -5.755338e-02 6.328139e+00 166 167 170
-1.950426e+00 6.506421e-03 6.482190e+00 153 149 146
-1.440046e+00 -2.220239e-02 6.232025e+00 170 168 171
-1.426674e+00 3.942120e-02 6.126134e+00 166 164 165
-2.581200e+00 2.882147e-01 6.671482e+00 94 79 54
-2.677259e+00 9.764392e-01 6.859860e+00 26 21 11
-1.007465e+01 5.123098e+00 -9.427502e+00 5 4 7
-1.007465e+01 5.123098e+00 -9.427502e+00 5 4 7
-9.837170e+00 5.177043e+00 -9.607452e+00 4 4 6
2.309016e+00 1.813516e+01 -5.945985e+01 133 140 158
8.476856e+00 1.001017e+01 -2.436410e+01 10 10 10
-2.656107e+01 2.813109e+01 -8.287895e+01 9 9 9
-4.669154e+02 4.366965e+02 -1.431805e+03 161 170 179
-3.844314e+01 3.496160e+01 -9.789502e+01 36 34 47
-1.988323e+02 2.993003e+02 -8.145805e+02 35 30 48
8.130445e+00 1.408461e+01 -2.664779e+01 22 22 26
-1.717741e+00 -1.208457e-01 6.778325e+00 159 160 156
-1.974726e+00 -5.996625e-02 6.700518e+00 154 150 151
-1.079836e+00 -1.427211e-01 6.446816e+00 145 142 137
-2.037949e+00 -5.050357e-02 6.642754e+00 150 149 145
-1.609409e+00 1.006050e-01 5.932480e+00 66 75 82
-2.368415e+00 1.703427e-01 6.059901e+00 68 64 59
-3.824246e+00 2.355773e-01 6.052589e+00 90 88 85
-2.614904e+00 3.868360e-01 6.714412e+00 100 86 58
-1.026462e+01 5.197482e+00 -9.491070e+00 93 91 73
-1.543292e+01 1.848466e+01 -5.404866e+01 11 9 11
-9.089571e+00 7.350987e+01 -2.506378e+02 17 17 17
-2.955772e+01 2.324173e+01 -6.479954e+01 173 171 184
-2.384609e+00 -1.536442e-01 7.244373e+00 37 35 38
-2.365390e+00 -1.438528e-01 7.202816e+00 42 39 43
-2.245867e+00 -1.390236e-01 7.142173e+00 61 57 49
-1.793010e+00 -1.027118e-01 6.751037e+00 161 156 162
-1.352471e+00 -7.591096e-02 6.369326e+00 168 169 173
-1.476448e+00 -4.577576e-02 6.348793e+00 167 167 171
-1.517249e+00 -3.738885e-02 6.331541e+00 168 167 172
-1.554110e+00 -2.782363e-02 6.316391e+00 166 166 170
-1.691312e+00 1.106914e-02 6.304939e+00 161 160 162
-1.674195e+00 5.150013e-02 6.153380e+00 163 159 160
-1.854389e+00 9.564942e-02 6.315475e+00 159 157 158
-1.841920e+00 7.382343e-02 6.182693e+00 166 163 163
-1.749348e+00 7.098389e-02 6.116037e+00 163 160 154
-1.726887e+00 7.427139e-02 6.109567e+00 57 61 88
-1.726053e+00 7.373930e-02 6.106732e+00 57 61 88
-1.804779e+00 8.938883e-02 6.090880e+00 67 79 104
-2.346691e+00 3.898365e-01 6.137150e+00 68 63 54
-9.729935e+00 5.212771e+00 -9.688533e+00 102 94 87
-5.197593e+00 1.490170e+01 -4.603819e+01 15 14 14
2.225685e+00 1.748854e+02 -6.100968e+02 17 20 21
7.892675e+00 9.500935e+00 -2.230932e+01 11 11 9
2.173816e+00 2.456819e+01 -6.870277e+01 255 254 255
3.520427e+01 4.532439e+01 -1.368528e+02 176 192 213
-3.839502e+01 3.646349e+01 -1.001460e+02 255 251 255
-1.979401e+00 1.574541e+02 -4.561672e+02 175 189 238
-1.323700e+01 1.902723e+01 -4.251453e+01 255 254 255
-3.984744e+00 1.694552e+01 -3.430133e+01 66 32 32
-2.398866e+00 -1.620218e-01 7.275989e+00 33 29 23
-2.398866e+00 -1.620218e-01 7.275989e+00 33 29 23
-2.237673e+00 -1.495775e-01 7.167975e+00 79 72 61
-2.364179e+00 -1.367685e-01 7.178873e+00 42 33 41
-2.250230e+00 -8.540359e-02 6.935010e+00 47 47 58
-1.760075e+00 -1.236740e-01 6.795359e+00 157 159 156
-1.738437e+00 -1.153152e-01 6.737229e+00 158 159 153
-1.919823e+00 -8.122907e-02 6.709387e+00 148 150 143
-1.919823e+00 -8.122907e-02 6.709387e+00 148 150 143
-1.457151e+00 -1.072330e-01 6.564107e+00 162 161 167
-1.943183e+00 -4.721693e-02 6.626331e+00 149 146 140
-1.310730e+00 -8.552994e-02 6.421711e+00 161 162 168
-1.310730e+00 -8.552994e-02 6.421711e+00 161 162 168
-1.771636e+00 -3.467013e-02 6.478943e+00 152 151 147
-1.960534e+00 -7.465991e-04 6.442732e+00 151 147 144
-1.957203e+00 9.676586e-03 6.423152e+00 52 55 79
-1.966192e+00 1.359359e-02 6.408043e+00 167 164 162
-1.654377e+00 -6.988566e-03 6.281226e+00 162 160 166
-1.754355e+00 3.550617e-02 6.239553e+00 154 153 149
-1.915758e+00 6.045560e-02 6.200263e+00 159 159 160
-1.401379e+00 1.119784e-01 5.810931e+00 154 154 149
-1.401379e+00 1.119784e-01 5.810931e+00 154 154 149
-3.304149e+00 2.187546e-01 6.080194e+00 153 146 132
-3.516620e+00 2.533384e-01 5.965751e+00 78 80 78
-3.426441e+00 5.114015e-01 5.107600e+00 184 181 192
-2.639623e+00 7.864876e-01 6.833673e+00 23 21 17
-2.665261e+00 7.948167e-01 6.820005e+00 25 23 21
-2.690335e+00 8.104939e-01 6.803021e+00 96 85 54
-2.578479e+00 8.639247e-01 6.897765e+00 35 33 20
1.301703e+01 1.061596e+01 -3.457493e+01 69 68 76
-5.556749e+00 1.542841e+01 -4.764619e+01 107 96 97
-6.828704e+00 4.118610e+01 -1.396257e+02 134 127 144
-1.375431e+01 1.738285e+01 -4.731792e+01 13 17 25
3.446649e+01 -1.401107e+02 4.671305e+02 253 254 255
-1.402431e+02 3.083158e+02 -9.775496e+02 255 252 253
-3.720039e+01 3.261280e+01 -8.797331e+01 254 251 252
-3.387592e+01 5.982494e+01 -1.583294e+02 27 29 47
1.453928e+00 2.027299e+01 -4.436009e+01 94 58 75
-2.572095e+00 -1.667322e-01 7.325970e+00 27 22 20
-2.360946e+00 -1.556487e-01 7.239855e+00 60 50 57
-2.262062e+00 -1.619729e-01 7.219915e+00 156 157 124
-2.277373e+00 -1.440854e-01 7.167272e+00 144 145 104
-2.237517e+00 -1.434798e-01 7.150001e+00 154 152 129
-2.336317e+00 -1.262780e-01 7.129176e+00 143 139 121
-1.752963e+00 -1.621817e-01 6.944910e+00 156 158 154
-1.745391e+00 -1.567595e-01 6.929665e+00 159 158 158
-1.823672e+00 -1.489207e-01 6.939516e+00 57 61 86
4.063934e+00 -7.034139e+00 -1.386444e+01 48 50 74
-1.688067e+00 -1.403467e-01 6.822801e+00 74 75 110
-1.558408e+00 -1.503393e-01 6.780576e+00 75 79 105
-1.745752e+00 -1.244395e-01 6.788307e+00 72 78 105
-2.097995e+00 -8.638614e-02 6.849487e+00 61 64 79
-1.769712e+00 -9.716950e-02 6.709938e+00 156 157 155
-1.945608e+00 -7.310013e-02 6.704677e+00 55 52 75
-1.886956e+00 -7.560244e-02 6.689071e+00 48 51 69
-1.995416e+00 -2.148432e-03 6.482726e+00 162 157 157
-1.469763e+00 2.269293e-02 6.137076e+00 166 162 161
-1.788524e+00 7.670632e-02 6.119881e+00 164 162 165
-1.238612e+00 1.136096e-01 5.723181e+00 154 155 149
-3.564358e+00 2.278365e-01 6.055818e+00 153 147 137
-3.564358e+00 2.278365e-01 6.055818e+00 153 147 137
-1.199037e+00 1.204256e-01 5.680818e+00 147 144 141
-1.277493e+00 1.566399e-01 5.606696e+00 65 72 86
-3.615771e+00 2.869870e-01 5.901985e+00 160 155 149
-1.157171e+00 1.847133e-01 5.443592e+00 163 162 157
-9.178785e-01 2.192093e-01 5.257685e+00 114 126 155
-3.505262e+00 3.559638e-01 5.615296e+00 166 166 159
-2.741540e+00 4.569127e-01 6.651435e+00 92 78 55
-4.168734e+00 4.457433e-01 5.379465e+00 151 144 125
-3.403764e+00 5.061482e-01 5.099800e+00 177 178 180
-2.721995e+00 5.900245e-01 6.709121e+00 51 45 43
-2.713464e+00 6.091603e-01 6.723862e+00 40 39 35
-6.656610e-01 5.738287e-01 3.889017e+00 79 73 46
-1.015001e+01 5.586948e+00 -9.344339e+00 11 12 13
2.694845e+01 8.272294e+01 -2.957356e+02 255 251 255
-1.726932e+01 2.260051e+01 -6.929579e+01 17 20 27
3.112743e+01 9.739403e+01 -3.361038e+02 199 199 242
3.741052e+01 1.144588e+02 -3.920490e+02 93 114 130
-1.585886e+01 2.016861e+01 -5.827256e+01 111 120 128
3.197504e+02 -5.256945e+02 1.823701e+03 168 161 182
6.464696e+01 1.455780e+02 -4.913075e+02 84 102 122
1.748813e+02 -3.226641e+02 1.100414e+03 81 97 106
-5.698929e+02 5.142154e+02 -1.701225e+03 159 155 176
-4.761983e+01 4.497125e+01 -1.300387e+02 164 178 198
-3.396994e+01 3.125614e+01 -8.624050e+01 143 144 159
9.290917e+00 1.707678e+01 -3.523892e+01 103 99 118
9.290917e+00 1.707678e+01 -3.523892e+01 103 99 118
-2.394281e+00 -1.541663e-01 7.248516e+00 129 128 110
-2.374336e+00 -1.436209e-01 7.205065e+00 136 136 124
-2.643362e+00 -1.092387e-01 7.162178e+00 66 54 74
-1.742502e+00 -1.616802e-01 6.938533e+00 66 66 96
-2.112494e+00 -1.215784e-01 7.009252e+00 36 34 47
-1.884905e+00 -9.197235e-02 6.745384e+00 57 57 84
-1.721754e+00 -1.049327e-01 6.706176e+00 157 160 159
-2.195176e+00 -5.871445e-02 6.798166e+00 155 149 149
-1.965756e+00 -7.947586e-02 6.751619e+00 54 55 75
-1.315956e+00 -1.364043e-01 6.586563e+00 80 83 116
-1.844423e+00 -8.456448e-02 6.697706e+00 58 59 78
-1.474795e+00 -1.061669e-01 6.571609e+00 79 82 111
-2.084191e+00 -4.663538e-02 6.681301e+00 62 61 75
-1.700263e+00 -4.190379e-02 6.478116e+00 73 81 102
-1.916706e+00 -2.308896e-02 6.516978e+00 148 148 137
-1.734569e+00 -3.451347e-02 6.465555e+00 73 79 109
-1.337145e+00 -6.708146e-02 6.364581e+00 91 100 123
-1.364544e+00 -6.260564e-02 6.366656e+00 89 95 116
-1.364338e+00 -6.256949e-02 6.366205e+00 89 95 116
-1.765628e+00 -2.171918e-02 6.439168e+00 54 62 87
-1.765628e+00 -2.171918e-02 6.439168e+00 54 62 87
-1.461994e+00 -3.870259e-02 6.344094e+00 81 89 116
-1.968441e+00 -2.897253e-04 6.447349e+00 153 146 146
-1.425531e+00 -3.475634e-02 6.306086e+00 80 90 117
-1.998309e+00 2.076050e-02 6.410262e+00 83 85 99
-1.998309e+00 2.076050e-02 6.410262e+00 83 85 99
-1.584331e+00 -8.971483e-03 6.308062e+00 75 87 111
-1.633942e+00 9.987928e-03 6.262980e+00 70 79 91
-1.834873e+00 6.166190e-02 6.195673e+00 78 86 107
-1.854925e+00 9.708374e-02 6.084768e+00 71 81 112
-1.630496e+00 1.256163e-01 5.898463e+00 66 68 72
-1.523559e+00 1.205193e-01 5.818062e+00 142 141 137
-1.349606e+00 1.192737e-01 5.757634e+00 150 141 143
-1.349606e+00 1.192737e-01 5.757634e+00 150 141 143
-1.657020e+00 1.392619e-01 5.821094e+00 130 129 125
-1.680059e+00 1.568538e-01 5.809135e+00 75 81 101
-1.202777e+00 1.851130e-01 5.479744e+00 129 130 128
-3.244716e+00 3.332808e-01 5.673994e+00 177 176 178
-3.273234e+00 3.405953e-01 5.662171e+00 180 178 181
-3.520851e+00 3.761496e-01 5.575865e+00 167 167 157
-2.174223e+00 3.299965e-01 5.361926e+00 111 120 132
-3.439132e+00 3.757608e-01 5.564763e+00 175 175 175
-2.728844e+00 4.823702e-01 6.671790e+00 52 46 39
-3.217180e+00 4.784409e-01 5.147647e+00 101 111 129
-3.392033e+00 4.918377e-01 5.146854e+00 112 117 138
-3.392033e+00 4.918377e-01 5.146854e+00 112 117 138
-2.670374e+00 5.571288e-01 6.738059e+00 48 42 27
-2.716650e+00 5.676273e-01 6.700285e+00 50 44 32
-1.545570e+00 5.257319e-01 4.418429e+00 98 119 126
-2.617487e+00 6.758948e-01 6.805886e+00 92 81 57
-2.704068e+00 7.771525e-01 6.771570e+00 95 82 59
-2.706566e+00 7.852427e-01 6.783679e+00 55 49 42
-2.710127e+00 8.174522e-01 6.789433e+00 93 81 62
-2.657642e+00 8.358209e-01 6.837166e+00 67 64 59
-9.919575e+00 5.054034e+00 -9.438465e+00 19 24 19
-1.760556e+01 2.267569e+01 -6.959766e+01 105 98 111
-7.580564e+00 4.833434e+01 -1.588305e+02 58 57 65
2.436918e+02 -2.046212e+02 6.543347e+02 148 146 175
-1.034607e+01 6.941272e+00 -9.669883e+00 49 50 60
1.779579e+01 4.884389e+01 -1.131335e+02 100 115 126
-1.932303e+00 -5.828464e-02 6.642027e+00 138 141 125
-1.479588e+00 -9.611341e-02 6.545704e+00 104 111 127
-1.479588e+00 -9.611341e-02 6.545704e+00 104 111 127
-1.594898e+00 -2.807696e-02 6.382266e+00 159 163 172
-1.953751e+00 1.891346e-02 6.390865e+00 62 65 87
-1.383276e+00 -1.354299e-02 6.218454e+00 160 161 166
-1.612790e+00 2.605804e-02 6.213164e+00 85 94 119
-1.727063e+00 4.049222e-02 6.209997e+00 66 69 89
-1.856511e+00 6.642519e-02 6.186322e+00 79 81 106
-1.869565e+00 9.873652e-02 6.081922e+00 98 97 120
-1.869565e+00 9.873652e-02 6.081922e+00 98 97 120
-1.732101e+00 9.736150e-02 6.017209e+00 76 79 115
-1.838755e+00 1.140563e-01 6.014726e+00 89 97 127
-1.640721e+00 1.093353e-01 5.941867e+00 150 147 134
-1.623249e+00 1.306522e-01 5.867434e+00 120 113 112
-1.452869e+00 1.277831e-01 5.786872e+00 135 133 140
-1.381977e+00 1.248848e-01 5.774939e+00 74 78 87
-1.287295e+00 1.200199e-01 5.730617e+00 128 128 133
-1.292962e+00 1.281902e-01 5.710145e+00 145 147 143
-1.193808e+00 1.280804e-01 5.663782e+00 97 103 116
-1.286575e+00 1.353714e-01 5.694170e+00 122 86 104
-1.520397e+00 1.622679e-01 5.724426e+00 52 58 58
-1.081495e+00 1.469765e-01 5.544253e+00 160 167 168
-1.705691e+00 1.821146e-01 5.716620e+00 114 111 120
-3.598614e+00 2.844599e-01 5.900386e+00 157 154 145
-3.681261e+00 2.907275e-01 5.864417e+00 98 96 109
-8.511607e-01 2.107295e-01 5.237984e+00 158 167 180
-3.393277e+00 3.263703e-01 5.713516e+00 127 129 138
-4.552164e+00 3.789603e-01 5.661565e+00 79 72 24
-3.135609e+00 3.480718e-01 5.591505e+00 104 111 128
-1.066263e+00 2.976523e-01 5.041385e+00 63 61 56
-3.327177e+00 3.887908e-01 5.482791e+00 114 121 144
-3.351853e+00 3.885751e-01 5.489611e+00 101 116 140
-2.669756e+00 4.696583e-01 6.702410e+00 64 61 45
-2.630811e+00 4.805139e-01 6.735004e+00 51 44 34
-3.209252e+00 4.487715e-01 5.248285e+00 114 125 145
-3.322407e+00 4.752904e-01 5.187704e+00 110 120 140
-8.232181e-01 5.631719e-01 3.977817e+00 90 84 62
-4.879965e+00 7.155440e-01 4.440691e+00 59 52 31
-6.646754e-01 1.598664e+00 1.090790e-01 79 73 64
1.842016e+02 -1.570058e+02 5.021087e+02 100 136 147
-1.927770e+00 -7.461160e-02 6.708569e+00 80 73 96
-1.897703e+00 -7.563558e-02 6.696223e+00 132 137 125
-2.061157e+00 -3.709597e-02 6.622603e+00 84 82 94
-2.061157e+00 -3.709597e-02 6.622603e+00 84 82 94
-1.891701e+00 4.794757e-02 6.285173e+00 151 153 153
-1.797402e+00 8.181780e-02 6.116594e+00 88 97 113
-1.766976e+00 9.732798e-02 6.049587e+00 92 99 117
-1.766976e+00 9.732798e-02 6.049587e+00 92 99 117
-1.797989e+00 1.044055e-01 6.034258e+00 93 93 117
-3.534325e+00 1.830205e-01 6.215847e+00 86 79 93
-1.593708e+00 1.062206e-01 5.931201e+00 103 110 118
-1.286315e+00 1.273768e-01 5.721775e+00 79 84 103
-1.286315e+00 1.273768e-01 5.721775e+00 79 84 103
-1.680394e+00 1.879669e-01 5.681019e+00 145 150 153
-1.680394e+00 1.879669e-01 5.681019e+00 145 150 153
-1.847611e+00 2.325050e-01 5.578440e+00 101 112 128
-3.730812e+00 3.097613e-01 5.803227e+00 159 156 144
-8.243325e-01 2.217100e-01 5.189467e+00 152 158 180
-2.021927e+00 3.218016e-01 5.341722e+00 157 167 184
-3.363434e+00 3.931956e-01 5.466637e+00 177 179 182
-3.458975e+00 4.244973e-01 5.400020e+00 122 125 144
-7.396744e-01 3.833874e-01 4.632175e+00 96 114 113
-5.051111e+00 5.903292e-01 4.824541e+00 48 39 31
-5.051111e+00 5.903292e-01 4.824541e+00 48 39 31
-1.930033e+00 5.386596e-01 4.536228e+00 138 144 150
-2.605418e+00 9.279668e-01 6.897099e+00 90 89 80
-2.322333e+00 1.117055e+00 6.455389e+00 171 167 181
-1.822217e+02 1.767241e+02 -5.517672e+02 50 54 69
6.408683e+00 6.965622e+01 -2.075583e+02 60 134 137
-2.631655e+00 6.543504e-01 9.186832e+00 0 255 0
-2.630645e+00 6.516330e-01 9.136916e+00 255 255 0
-2.109489e+00 5.993112e-01 9.076079e+00 255 0 0
-2.115110e+00 5.987907e-01 9.026399e+00 255 255 0
