ply
format ascii 1.0
element face 0
property list uchar int vertex_indices
element vertex 942
property float x
property float y
property float z
property uchar diffuse_red
property uchar diffuse_green
property uchar diffuse_blue
end_header
-1.426037e+00 4.630637e-01 9.945891e+00 165 164 160
-1.241144e+00 5.011655e-01 9.768333e+00 155 153 141
-2.256138e+00 1.375326e-01 1.134892e+01 143 142 121
-1.794127e+00 1.844544e-01 1.100835e+01 154 153 148
-1.590167e+00 2.293532e-01 1.075565e+01 149 148 145
-1.731609e+00 3.356821e-01 1.043646e+01 168 166 166
-3.889417e+00 6.932724e-01 9.840986e+00 103 104 100
-4.130519e+00 7.159363e-01 9.777979e+00 126 124 132
-1.327122e+00 3.976824e-01 1.012414e+01 156 157 154
-3.595506e+00 1.020287e+00 8.742640e+00 180 183 183
-2.835542e+00 1.574209e+00 1.081947e+01 34 34 35
-2.663330e+00 1.371058e-01 1.144905e+01 55 42 66
-1.600834e+00 1.985899e-01 1.088073e+01 148 149 147
-1.653118e+00 2.062281e-01 1.085146e+01 146 146 149
-4.005510e+00 6.943224e-01 9.861564e+00 106 102 108
-4.005510e+00 6.943224e-01 9.861564e+00 106 102 108
-1.364555e+00 4.131925e-01 1.012838e+01 159 156 158
-1.162099e+00 5.159038e-01 9.709499e+00 146 143 143
-4.069619e+00 9.131409e-01 9.168766e+00 168 171 165
-3.654796e+00 8.945811e-01 9.116229e+00 103 110 129
-2.403544e+00 8.071243e-02 1.157267e+01 62 53 65
-4.373444e+00 5.196734e-01 1.056048e+01 125 116 110
-4.601544e+00 5.646311e-01 1.047585e+01 101 86 90
-1.656441e+00 2.113801e-01 1.082520e+01 50 50 78
-1.803497e+00 3.309623e-01 1.046364e+01 79 77 95
-9.834892e-01 3.818563e-01 1.009184e+01 166 162 161
-3.954159e+00 8.812186e-01 9.220544e+00 167 166 156
-3.939186e+00 9.009545e-01 9.159287e+00 171 169 169
-3.971255e+00 5.995451e-01 1.015203e+01 70 65 81
-3.819413e+00 5.905815e-01 1.013577e+01 81 74 82
-1.576084e+00 4.669170e-01 9.961062e+00 93 89 119
-1.222676e+00 4.925010e-01 9.797652e+00 79 75 85
-4.058680e+00 8.476299e-01 9.372218e+00 162 163 152
-3.844259e+00 8.377003e-01 9.372457e+00 168 168 163
-3.617385e+00 8.921809e-01 9.112295e+00 114 117 142
-3.484760e+00 1.004189e+00 8.718844e+00 108 119 136
-3.484760e+00 1.004189e+00 8.718844e+00 108 119 136
-3.676441e+00 1.049938e+00 8.614108e+00 107 115 129
-1.512718e-01 2.288280e+00 3.393934e+00 79 73 64
-1.677149e+00 3.510622e-01 1.037494e+01 144 148 151
-1.534884e+00 4.902002e-01 9.877248e+00 100 100 118
-1.539874e+00 4.924043e-01 9.895507e+00 100 100 118
-3.586867e+00 8.678654e-01 9.179003e+00 104 109 128
-3.549154e+00 8.697017e-01 9.158029e+00 110 112 136
-1.042401e+00 1.089368e+00 7.754659e+00 119 130 129
-2.634376e+00 1.855554e+00 1.102317e+01 14 14 12
-2.690162e+00 8.718547e-01 1.070654e+01 20 20 18
-2.009719e+00 2.004949e-01 1.101839e+01 163 159 156
-1.289545e+01 6.499274e+00 -6.874526e+00 87 83 72
-2.052209e+00 1.817262e-01 1.110432e+01 79 73 90
-1.290819e+00 3.793934e-01 1.020686e+01 161 161 161
-8.410744e-01 3.790529e-01 1.007609e+01 168 168 170
-1.443873e+00 5.136464e-01 9.807377e+00 170 169 168
-1.281528e+00 5.267027e-01 9.741243e+00 80 85 89
-2.530059e+00 1.810902e+00 1.097723e+01 28 29 24
-2.275392e+00 1.142232e-01 1.139707e+01 147 144 125
-1.644010e+00 2.315387e-01 1.074592e+01 149 148 143
-1.705993e+00 2.534552e-01 1.069240e+01 108 110 111
-1.215093e+00 2.511897e-01 1.058651e+01 109 111 129
-1.215093e+00 2.511897e-01 1.058651e+01 109 111 129
-7.103746e-01 2.661304e-01 1.036735e+01 166 167 170
-7.103746e-01 2.661304e-01 1.036735e+01 166 167 170
-1.674914e+00 3.383832e-01 1.046168e+01 153 149 146
-9.386460e-01 3.154874e-01 1.022616e+01 170 168 171
-9.142559e-01 4.029876e-01 1.005853e+01 166 164 165
-2.644980e+00 7.680072e-01 1.065731e+01 94 79 54
-2.796299e+00 1.845909e+00 1.091182e+01 26 21 11
-9.903179e+00 5.464498e+00 -4.423422e+00 5 4 7
-1.005466e+01 5.550697e+00 -4.800601e+00 5 4 7
-9.826895e+00 5.613738e+00 -5.032162e+00 4 4 6
-1.333963e+00 1.629662e-01 1.094852e+01 159 160 156
-1.713349e+00 2.412708e-01 1.078224e+01 154 150 151
-4.199010e-01 1.525641e-01 1.057647e+01 145 142 137
-1.809816e+00 2.537805e-01 1.069430e+01 150 149 145
-1.184619e+00 4.889006e-01 9.778350e+00 66 75 82
-2.306175e+00 5.800042e-01 9.829358e+00 68 64 59
-4.454947e+00 6.984476e-01 9.926606e+00 90 88 85
-2.696260e+00 9.237225e-01 1.073061e+01 100 86 58
-1.032840e+01 5.680528e+00 -5.048510e+00 93 91 73
-2.351267e+00 9.074753e-02 1.153816e+01 37 35 38
-2.319763e+00 1.057313e-01 1.148065e+01 42 39 43
-2.132077e+00 1.150155e-01 1.139642e+01 61 57 49
-1.444117e+00 1.870602e-01 1.089706e+01 161 156 162
-8.203994e-01 2.433341e-01 1.045633e+01 168 169 173
-9.882308e-01 2.809419e-01 1.038026e+01 167 167 171
-1.050383e+00 2.947855e-01 1.036145e+01 168 167 172
-1.099021e+00 3.035686e-01 1.031765e+01 166 166 170
-1.295017e+00 3.541266e-01 1.026769e+01 161 160 162
-1.274648e+00 4.157285e-01 1.006839e+01 163 159 160
-1.527168e+00 4.746925e-01 1.021598e+01 159 157 158
-1.515156e+00 4.422243e-01 1.005747e+01 166 163 163
-1.383820e+00 4.409247e-01 1.000659e+01 163 160 154
-1.349588e+00 4.458280e-01 9.990167e+00 57 61 88
-1.349618e+00 4.462015e-01 9.989836e+00 57 61 88
-1.465398e+00 4.667463e-01 9.961635e+00 67 79 104
-2.274314e+00 9.165172e-01 9.954954e+00 68 63 54
-8.971980e+00 5.188359e+00 -3.104712e+00 102 94 87
-2.373379e+00 7.540255e-02 1.158384e+01 33 29 23
-2.374023e+00 7.742063e-02 1.158681e+01 33 29 23
-2.119973e+00 1.014838e-01 1.144749e+01 79 72 61
-2.317437e+00 1.155783e-01 1.144216e+01 42 33 41
-2.136478e+00 1.970643e-01 1.109930e+01 47 47 58
-1.388799e+00 1.503856e-01 1.094363e+01 157 159 156
-1.365669e+00 1.714716e-01 1.089358e+01 158 159 153
-1.630008e+00 2.097182e-01 1.080190e+01 148 150 143
-1.630008e+00 2.097182e-01 1.080190e+01 148 150 143
-9.567111e-01 1.912732e-01 1.068586e+01 162 161 167
-1.665922e+00 2.609061e-01 1.067974e+01 149 146 140
-7.500275e-01 2.296241e-01 1.051061e+01 161 162 168
-7.421291e-01 2.249698e-01 1.049312e+01 161 162 168
-1.413558e+00 2.872437e-01 1.050770e+01 152 151 147
-1.694207e+00 3.317710e-01 1.042350e+01 151 147 144
-1.686875e+00 3.445721e-01 1.038533e+01 52 55 79
-1.699772e+00 3.496806e-01 1.035794e+01 167 164 162
-1.250749e+00 3.374934e-01 1.027586e+01 162 160 166
-1.385535e+00 3.871070e-01 1.015183e+01 154 153 149
-1.628973e+00 4.235769e-01 1.009528e+01 159 159 160
-8.909580e-01 5.111023e-01 9.648391e+00 154 154 149
-8.909580e-01 5.111023e-01 9.648391e+00 154 154 149
-3.711130e+00 6.650147e-01 9.897665e+00 153 146 132
-4.015345e+00 7.176745e-01 9.756522e+00 78 80 78
-3.838121e+00 1.074917e+00 8.582238e+00 184 181 192
-2.738544e+00 1.548090e+00 1.087372e+01 23 21 17
-2.777202e+00 1.560929e+00 1.085904e+01 25 23 21
-2.816216e+00 1.584432e+00 1.082752e+01 96 85 54
-2.643098e+00 1.671231e+00 1.097175e+01 35 33 20
-2.647826e+00 6.775174e-02 1.165317e+01 27 22 20
-2.313226e+00 8.566518e-02 1.153209e+01 60 50 57
-2.157789e+00 7.788038e-02 1.150779e+01 156 157 124
-2.181279e+00 1.052771e-01 1.142961e+01 144 145 104
-2.118664e+00 1.068269e-01 1.140709e+01 154 152 129
-2.272969e+00 1.326033e-01 1.137088e+01 143 139 121
-1.381871e+00 9.781803e-02 1.117753e+01 156 158 154
-1.371093e+00 1.067992e-01 1.115766e+01 159 158 158
-1.487240e+00 1.146083e-01 1.115924e+01 57 61 86
2.834083e+00 -5.077526e+00 -3.287331e+00 48 50 74
-1.280910e+00 1.270993e-01 1.099035e+01 74 75 110
-1.089937e+00 1.181036e-01 1.095229e+01 75 79 105
-1.374610e+00 1.569744e-01 1.096086e+01 72 78 105
-1.901475e+00 1.989329e-01 1.098346e+01 61 64 79
-1.409626e+00 1.957404e-01 1.084077e+01 156 157 155
-1.670262e+00 2.234763e-01 1.079787e+01 55 52 75
-1.583028e+00 2.221709e-01 1.078721e+01 48 51 69
-1.744347e+00 3.261073e-01 1.046528e+01 162 157 157
-9.832782e-01 3.823429e-01 1.008990e+01 166 162 161
-1.440306e+00 4.489232e-01 9.998206e+00 164 162 165
-6.672065e-01 5.173128e-01 9.566029e+00 154 155 149
-4.091945e+00 6.825227e-01 9.881354e+00 153 147 137
-4.091945e+00 6.825227e-01 9.881354e+00 153 147 137
-6.137967e-01 5.252639e-01 9.522332e+00 147 144 141
-7.225518e-01 5.765062e-01 9.399668e+00 65 72 86
-4.159595e+00 7.668108e-01 9.665175e+00 160 155 149
-5.589737e-01 6.123323e-01 9.207543e+00 163 162 157
-2.548142e-01 6.695533e-01 9.051152e+00 114 126 155
-3.975741e+00 8.626260e-01 9.286223e+00 166 166 159
-2.889218e+00 1.031690e+00 1.064899e+01 92 78 55
-4.895801e+00 9.971090e-01 9.040323e+00 151 144 125
-3.797030e+00 1.068312e+00 8.611004e+00 177 178 180
-2.861570e+00 1.238434e+00 1.071296e+01 51 45 43
-2.850449e+00 1.268598e+00 1.072421e+01 40 39 35
9.717194e-03 1.129944e+00 7.441722e+00 79 73 46
-9.947872e+00 5.917900e+00 -4.279113e+00 11 12 13
-2.365764e+00 8.770798e-02 1.154343e+01 129 128 110
-2.333827e+00 1.068393e-01 1.148550e+01 136 136 124
-2.755199e+00 1.598408e-01 1.141051e+01 66 54 74
-1.366666e+00 9.960716e-02 1.117136e+01 66 66 96
-1.924758e+00 1.452012e-01 1.121830e+01 36 34 47
-1.577348e+00 1.951264e-01 1.085699e+01 57 57 84
-1.333207e+00 1.798096e-01 1.082061e+01 157 160 159
-2.049482e+00 2.361867e-01 1.089139e+01 155 149 149
-1.701868e+00 2.145395e-01 1.087215e+01 54 55 75
-7.555329e-01 1.565799e-01 1.074429e+01 80 83 116
-1.518605e+00 2.090022e-01 1.080202e+01 58 59 78
-9.878662e-01 1.980512e-01 1.071087e+01 79 82 111
-1.879267e+00 2.579248e-01 1.073921e+01 62 61 75
-1.305076e+00 2.756986e-01 1.050571e+01 73 81 102
-1.626553e+00 2.973419e-01 1.052841e+01 148 148 137
-1.356883e+00 2.861897e-01 1.048552e+01 73 79 109
-7.811194e-01 2.504179e-01 1.040807e+01 91 100 123
-8.200894e-01 2.556711e-01 1.040582e+01 89 95 116
-8.291013e-01 2.610873e-01 1.042734e+01 89 95 116
-1.402713e+00 3.039971e-01 1.044173e+01 54 62 87
-1.402624e+00 3.045890e-01 1.044158e+01 54 62 87
-9.659895e-01 2.910779e-01 1.037193e+01 81 89 116
-1.703490e+00 3.295389e-01 1.042020e+01 153 146 146
-9.088755e-01 2.945268e-01 1.031115e+01 80 90 117
-1.749351e+00 3.611607e-01 1.036589e+01 83 85 99
-1.749351e+00 3.611607e-01 1.036589e+01 83 85 99
-1.140509e+00 3.290095e-01 1.029313e+01 75 87 111
-1.213246e+00 3.569595e-01 1.022125e+01 70 79 91
-1.505649e+00 4.244650e-01 1.008184e+01 78 86 107
-1.532239e+00 4.715733e-01 9.908416e+00 71 81 112
-1.210075e+00 5.231252e-01 9.706411e+00 66 68 72
-1.066129e+00 5.219540e-01 9.649827e+00 142 141 137
-8.250820e-01 5.249723e-01 9.606293e+00 150 141 143
-8.203117e-01 5.204653e-01 9.592055e+00 150 141 143
-1.257678e+00 5.475866e-01 9.631552e+00 130 129 125
-1.283692e+00 5.673176e-01 9.578302e+00 75 81 101
-6.257993e-01 6.196831e-01 9.254111e+00 129 130 128
-3.603936e+00 8.256688e-01 9.329610e+00 177 176 178
-3.641090e+00 8.383143e-01 9.334729e+00 180 178 181
-3.995748e+00 8.919840e-01 9.235155e+00 167 167 157
-2.008478e+00 8.081069e-01 8.916353e+00 111 120 132
-3.888328e+00 8.861381e-01 9.171727e+00 175 175 175
-2.871852e+00 1.070836e+00 1.066663e+01 52 46 39
-3.530830e+00 1.027858e+00 8.664392e+00 101 111 129
-3.789572e+00 1.047668e+00 8.637956e+00 112 117 138
-3.789572e+00 1.047668e+00 8.637956e+00 112 117 138
-2.784385e+00 1.187731e+00 1.074244e+01 48 42 27
-2.853505e+00 1.203192e+00 1.069868e+01 50 44 32
-1.122435e+00 1.074454e+00 7.828538e+00 98 119 126
-2.702678e+00 1.375028e+00 1.084531e+01 92 81 57
-2.835062e+00 1.530457e+00 1.079767e+01 95 82 59
-2.839779e+00 1.544396e+00 1.081080e+01 55 49 42
-2.845094e+00 1.594050e+00 1.082066e+01 93 81 62
-2.764750e+00 1.624672e+00 1.088732e+01 67 64 59
-1.009661e+01 5.597436e+00 -5.310874e+00 19 24 19
-9.946909e+00 7.118419e+00 -4.171966e+00 49 50 60
-1.650124e+00 2.451248e-01 1.070502e+01 138 141 125
-9.914342e-01 2.084754e-01 1.066259e+01 104 111 127
-9.930602e-01 2.114517e-01 1.066749e+01 104 111 127
-1.154469e+00 3.007674e-01 1.039440e+01 159 163 172
-1.682153e+00 3.589266e-01 1.034258e+01 62 65 87
-8.623316e-01 3.349275e-01 1.022851e+01 160 161 166
-1.182063e+00 3.786413e-01 1.015126e+01 85 94 119
-1.348117e+00 3.971858e-01 1.012575e+01 66 69 89
-1.537918e+00 4.308936e-01 1.006795e+01 79 81 106
-1.557810e+00 4.796320e-01 9.924037e+00 98 97 120
-1.558319e+00 4.790679e-01 9.923248e+00 98 97 120
-1.356892e+00 4.782070e-01 9.856862e+00 76 79 115
-1.512041e+00 5.001409e-01 9.828497e+00 89 97 127
-1.227950e+00 5.002857e-01 9.774872e+00 150 147 134
-1.204057e+00 5.336825e-01 9.681197e+00 120 113 112
-9.635897e-01 5.316147e-01 9.606733e+00 135 133 140
-8.615751e-01 5.253582e-01 9.600010e+00 74 78 87
-7.335022e-01 5.225503e-01 9.566543e+00 128 128 133
-7.408590e-01 5.359577e-01 9.533597e+00 145 147 143
-6.081409e-01 5.389264e-01 9.500420e+00 97 103 116
-7.420643e-01 5.530359e-01 9.539972e+00 122 86 104
-1.057096e+00 5.761385e-01 9.498503e+00 52 58 58
-4.613142e-01 5.664047e-01 9.377612e+00 160 167 168
-1.322844e+00 6.039982e-01 9.457017e+00 114 111 120
-4.130681e+00 7.644250e-01 9.673142e+00 157 154 145
-4.247238e+00 7.730434e-01 9.632087e+00 98 96 109
-1.645012e-01 6.578137e-01 9.030009e+00 158 167 180
-3.821708e+00 8.187897e-01 9.400217e+00 127 129 138
-5.423128e+00 9.162793e-01 9.491728e+00 79 72 24
-3.435797e+00 8.464475e-01 9.235897e+00 104 111 128
-4.499712e-01 7.679240e-01 8.712805e+00 63 61 56
-3.713830e+00 9.046109e-01 9.080270e+00 114 121 144
-3.749380e+00 9.047001e-01 9.094733e+00 101 116 140
-2.780207e+00 1.052233e+00 1.071940e+01 64 61 45
-2.722254e+00 1.067993e+00 1.074314e+01 51 44 34
-3.524777e+00 9.870892e-01 8.792992e+00 114 125 145
-3.691689e+00 1.024073e+00 8.684415e+00 110 120 140
-1.831671e-01 1.116801e+00 7.493458e+00 90 84 62
-5.758495e+00 1.354897e+00 7.947458e+00 59 52 31
-1.667723e-01 2.279719e+00 3.483583e+00 79 73 64
-1.643402e+00 2.213520e-01 1.080582e+01 80 73 96
-1.597354e+00 2.194243e-01 1.078495e+01 132 137 125
-1.845619e+00 2.752480e-01 1.066512e+01 84 82 94
-1.845598e+00 2.751320e-01 1.067256e+01 84 82 94
-1.592277e+00 4.056277e-01 1.021262e+01 151 153 153
-1.451393e+00 4.555313e-01 9.979929e+00 88 97 113
-1.410798e+00 4.797478e-01 9.906311e+00 92 99 117
-1.407331e+00 4.775478e-01 9.891959e+00 92 99 117
-1.452429e+00 4.873155e-01 9.863514e+00 93 93 117
-4.053840e+00 6.196421e-01 1.011207e+01 86 79 93
-1.159148e+00 4.969249e-01 9.765925e+00 103 110 118
-7.348344e-01 5.363824e-01 9.562564e+00 79 84 103
-7.348344e-01 5.363824e-01 9.562564e+00 79 84 103
-1.287947e+00 6.132847e-01 9.412000e+00 145 150 153
-1.287308e+00 6.130379e-01 9.412742e+00 145 150 153
-1.530447e+00 6.729583e-01 9.248412e+00 101 112 128
-4.314151e+00 8.021224e-01 9.554038e+00 159 156 144
-1.336900e-01 6.737754e-01 8.984447e+00 152 158 180
-1.785304e+00 7.959405e-01 8.901701e+00 157 167 184
-3.760653e+00 9.126191e-01 9.083119e+00 177 179 182
-3.900058e+00 9.565367e-01 8.978806e+00 122 125 144
-3.365575e-02 8.838261e-01 8.274399e+00 96 114 113
-5.989110e+00 1.193756e+00 8.501725e+00 48 39 31
-5.993830e+00 1.195292e+00 8.493393e+00 48 39 31
-1.655453e+00 1.092309e+00 7.884075e+00 138 144 150
-2.684810e+00 1.772105e+00 1.096680e+01 90 89 80
-2.237819e+00 2.036902e+00 1.033674e+01 171 167 181
-2.720119e+00 1.133243e-01 1.167253e+01 139 135 122
-2.720119e+00 1.133243e-01 1.167253e+01 139 135 122
-3.733595e+00 6.758865e-01 9.969572e+00 73 66 75
-2.816664e+00 1.097439e-01 1.154051e+01 118 117 94
-3.476884e+00 2.817305e-01 1.115538e+01 158 155 140
-2.643795e+00 1.592369e+00 1.096794e+01 16 16 14
-2.643795e+00 1.592369e+00 1.096794e+01 16 16 14
-3.017783e+00 9.042519e-02 1.166345e+01 44 42 49
-1.313614e+00 1.119659e-03 1.132476e+01 50 42 54
-4.353157e+00 2.309132e-01 1.132344e+01 90 84 39
-1.952390e+00 1.962765e-01 1.106848e+01 161 158 153
-1.760205e+00 2.054828e-01 1.091771e+01 154 153 151
-3.969256e+00 7.020582e-01 9.788284e+00 79 75 82
-2.388396e+00 9.441545e-02 1.153755e+01 148 141 132
-2.901240e+00 1.221142e-01 1.149572e+01 146 141 119
-1.334976e+00 7.424324e-02 1.113885e+01 87 85 101
-1.703090e+00 2.846978e-01 1.061959e+01 150 147 140
-1.731781e+00 2.791618e-01 1.054411e+01 150 147 140
-1.803424e+00 3.155353e-01 1.056723e+01 170 168 169
-1.355363e+00 3.480104e-01 1.029701e+01 150 151 145
-1.355363e+00 3.480104e-01 1.029701e+01 150 151 145
-1.034534e+00 3.415607e-01 1.015805e+01 168 168 170
-2.875546e+00 5.033796e-01 1.046623e+01 78 66 44
-2.929901e+00 5.529411e-01 1.049272e+01 25 26 21
-1.454887e+00 5.213585e-01 9.853205e+00 170 169 168
-1.394154e+00 5.514372e-01 9.677011e+00 91 99 110
-2.697053e+00 1.036450e+00 1.079268e+01 100 85 63
-2.670448e+00 1.413780e+00 1.091211e+01 93 82 59
-2.816590e+00 1.897612e+00 1.091139e+01 13 13 11
-1.074920e+00 1.916806e-02 1.122231e+01 138 136 124
-4.230148e+00 2.431536e-01 1.123404e+01 23 24 19
-1.428531e+00 1.706032e-01 1.092518e+01 156 157 159
-2.948142e-01 1.841427e-01 1.036397e+01 44 42 57
-4.114364e-01 1.879614e-01 1.036901e+01 151 152 149
-6.145746e-01 2.414050e-01 1.037447e+01 161 161 163
-1.037071e+00 3.757601e-01 1.006419e+01 72 81 111
-3.730117e+00 6.488402e-01 9.906132e+00 150 148 138
-2.599606e+00 1.348338e+00 1.087974e+01 90 74 50
-3.019343e+00 7.874690e-02 1.166400e+01 13 11 18
-2.999666e+00 9.274641e-02 1.162106e+01 17 13 20
-2.999666e+00 9.274641e-02 1.162106e+01 17 13 20
-2.722728e+00 9.130981e-02 1.160656e+01 142 137 113
-1.987363e+00 6.935445e-02 1.146043e+01 105 98 76
-1.710206e+00 2.378290e-01 1.076942e+01 154 150 151
-7.510531e-01 2.160267e-01 1.044664e+01 164 163 169
-2.741433e-01 1.981933e-01 1.032497e+01 43 42 43
-3.483338e-01 2.116754e-01 1.031134e+01 57 56 70
-4.390415e-01 2.387810e-01 1.037728e+01 62 67 87
-9.343124e-01 2.627824e-01 1.038487e+01 167 167 169
-4.861083e-01 2.483535e-01 1.031359e+01 70 76 100
-5.940462e-01 2.709933e-01 1.028403e+01 79 88 117
-1.733850e+00 3.494656e-01 1.044068e+01 165 158 165
-7.582556e-01 3.062948e-01 1.018058e+01 82 93 128
-8.117612e-01 3.152313e-01 1.016069e+01 83 92 124
-8.117612e-01 3.152313e-01 1.016069e+01 83 92 124
-1.199088e+00 4.028298e-01 1.005184e+01 167 162 166
-1.219358e+00 4.198846e-01 1.002130e+01 64 74 100
-1.433282e+00 4.827800e-01 9.887352e+00 68 76 103
-1.513345e+00 4.908998e-01 9.914444e+00 69 80 109
-1.335395e+00 5.030361e-01 9.842608e+00 163 162 160
-7.712501e-01 7.139163e-01 8.978616e+00 58 68 92
-2.797693e+00 1.603174e+00 1.086507e+01 17 17 15
-6.671103e-01 2.221616e+00 1.093407e+01 247 252 255
-3.043445e+00 9.488610e-02 1.166160e+01 25 19 32
-2.222014e+00 4.275726e-02 1.160374e+01 149 147 126
-1.913906e+00 1.513863e-02 1.157356e+01 75 65 62
-2.658857e+00 7.259829e-02 1.161775e+01 138 135 116
-1.819849e+00 1.380302e-02 1.154140e+01 147 146 126
-1.715940e+00 4.088234e-03 1.151844e+01 35 28 34
-2.059186e+00 4.168936e-02 1.153502e+01 169 165 137
-2.093324e+00 4.947210e-02 1.152271e+01 168 165 142
-2.321543e+00 7.638827e-02 1.154930e+01 40 35 35
-2.068321e+00 5.576980e-02 1.152045e+01 110 101 93
-2.068321e+00 5.576980e-02 1.152045e+01 110 101 93
-2.349866e+00 8.460337e-02 1.153192e+01 37 35 38
-1.800414e+00 3.350172e-02 1.146534e+01 70 62 58
-1.800414e+00 3.350172e-02 1.146534e+01 70 62 58
-2.097495e+00 6.657083e-02 1.150606e+01 107 101 89
-1.228796e+00 -1.417679e-02 1.137408e+01 134 131 111
-2.029135e+00 8.107959e-02 1.144130e+01 167 166 138
-2.903222e+00 1.464498e-01 1.146874e+01 29 23 23
-2.903222e+00 1.464498e-01 1.146874e+01 29 23 23
-1.381833e+00 2.310018e-02 1.131930e+01 138 136 120
-1.415578e+00 3.400986e-02 1.131067e+01 138 134 120
-2.154799e+00 1.099543e-01 1.139235e+01 157 150 132
-1.553914e+00 7.460230e-02 1.129424e+01 143 140 128
-1.547690e+00 6.585602e-02 1.127423e+01 143 140 128
-1.181394e+00 3.685028e-02 1.118473e+01 145 142 133
-7.341168e-01 3.389322e-02 1.101427e+01 134 131 116
-1.879706e+00 1.436373e-01 1.116598e+01 155 152 143
-2.110147e+00 1.929425e-01 1.107288e+01 159 155 145
-2.110539e+00 1.939918e-01 1.107528e+01 159 155 145
-5.272931e-01 1.773107e-01 1.057518e+01 155 153 155
-1.880369e+00 2.813549e-01 1.072070e+01 169 166 167
-7.945330e-01 2.277313e-01 1.045124e+01 165 166 171
-1.607425e+00 3.124518e-01 1.046440e+01 153 149 146
-5.257474e-01 2.604719e-01 1.033204e+01 159 160 159
-1.027489e+00 2.784919e-01 1.029771e+01 168 167 172
-1.153545e+00 3.150907e-01 1.027248e+01 167 162 166
-8.876784e-01 3.386783e-01 1.011970e+01 167 166 168
-1.535377e+00 4.072246e-01 1.014100e+01 163 161 165
-1.622466e+00 4.294934e-01 1.018312e+01 158 158 163
-1.569642e+00 4.129610e-01 1.011502e+01 162 159 157
-1.403726e+00 4.170115e-01 1.012573e+01 158 156 154
-1.269931e+00 4.129900e-01 1.005219e+01 163 159 160
-1.489160e+00 4.382233e-01 1.009631e+01 159 157 158
-1.519055e+00 4.423248e-01 1.007583e+01 166 163 163
-1.312681e+00 4.433825e-01 1.000849e+01 159 160 155
-1.350274e+00 4.485026e-01 9.992441e+00 57 61 88
-4.096010e+00 6.080154e-01 1.006864e+01 100 93 103
-4.096010e+00 6.080154e-01 1.006864e+01 100 93 103
-4.162121e+00 6.215885e-01 1.004576e+01 68 66 69
-4.411903e+00 6.770417e-01 9.905450e+00 134 133 130
-3.814647e+00 6.712345e-01 9.848031e+00 126 124 121
-2.754657e+00 9.284652e-01 1.068796e+01 97 86 65
-3.395407e+00 8.359096e-01 9.277987e+00 165 170 176
-5.705769e-01 7.773231e-01 8.629193e+00 59 39 35
-3.611321e+00 9.993918e-01 8.795245e+00 159 166 176
-3.505578e+00 1.006467e+00 8.789162e+00 182 181 184
-3.505578e+00 1.006467e+00 8.789162e+00 182 181 184
-3.576505e+00 1.041611e+00 8.685413e+00 158 165 176
-3.449018e+00 1.079888e+00 8.577459e+00 152 152 161
-3.449018e+00 1.079888e+00 8.577459e+00 152 152 161
-3.761773e+00 1.092742e+00 8.605877e+00 144 145 157
-2.684600e+00 1.484716e+00 1.088838e+01 94 82 56
-2.783669e+00 1.814474e+00 1.091964e+01 16 16 16
-2.783669e+00 1.814474e+00 1.091964e+01 16 16 16
-2.835272e+00 1.857016e+00 1.089140e+01 14 14 12
-2.541860e+00 3.876329e-02 1.170788e+01 137 135 110
-2.541860e+00 3.876329e-02 1.170788e+01 137 135 110
-2.526288e+00 4.496310e-02 1.168801e+01 132 131 109
-2.512102e+00 4.766537e-02 1.168455e+01 30 22 26
-2.596041e+00 5.798722e-02 1.166595e+01 132 132 101
-2.577927e+00 6.097941e-02 1.166111e+01 28 22 25
-2.217892e+00 3.643264e-02 1.163780e+01 61 54 51
-2.166326e+00 3.536920e-02 1.161131e+01 80 73 62
-3.024106e+00 8.868759e-02 1.164151e+01 134 135 102
-2.640491e+00 7.033949e-02 1.162897e+01 24 20 23
-2.199610e+00 4.390696e-02 1.159993e+01 77 68 69
-2.713938e+00 8.081534e-02 1.162944e+01 23 18 16
-2.230479e+00 4.721085e-02 1.157708e+01 71 62 65
-1.915874e+00 2.065028e-02 1.154045e+01 159 154 133
-2.667142e+00 8.330679e-02 1.160092e+01 31 22 36
-2.667142e+00 8.330679e-02 1.160092e+01 31 22 36
-2.761787e+00 8.929000e-02 1.160887e+01 136 133 116
-2.695530e+00 9.228194e-02 1.159788e+01 25 22 24
-2.695575e+00 9.144595e-02 1.159346e+01 25 22 24
-2.291084e+00 7.175064e-02 1.157307e+01 60 51 53
-2.119604e+00 5.052805e-02 1.154586e+01 102 95 82
-2.036549e+00 4.569095e-02 1.153632e+01 111 105 92
-1.135504e+00 -3.118904e-02 1.138378e+01 25 20 23
-2.819623e+00 1.186935e-01 1.153428e+01 24 20 17
-7.847400e-01 -6.213776e-02 1.131850e+01 121 122 97
-1.943554e+00 6.404975e-02 1.145947e+01 103 97 78
-2.953814e+00 1.351332e-01 1.151212e+01 26 21 27
-2.952883e+00 1.374947e-01 1.152269e+01 26 21 27
-1.340734e+00 1.453975e-02 1.133691e+01 27 19 33
-9.203394e-01 -1.942389e-02 1.126155e+01 37 28 36
-9.203394e-01 -1.942389e-02 1.126155e+01 37 28 36
-2.198202e+00 1.103223e-01 1.143964e+01 60 57 53
-2.198441e+00 1.075380e-01 1.143256e+01 60 57 53
-1.388579e+00 3.318465e-02 1.129448e+01 24 25 26
-1.037174e+00 6.964458e-03 1.124337e+01 131 129 113
-1.048866e+00 8.250188e-03 1.123083e+01 34 25 37
-1.558023e+00 7.889131e-02 1.123047e+01 144 144 134
-7.004293e-01 2.842437e-02 1.102487e+01 129 128 110
-1.450055e+00 1.009553e-01 1.110202e+01 157 158 153
-7.068641e-01 4.056106e-02 1.100302e+01 35 27 24
-1.479370e+00 1.081176e-01 1.109464e+01 155 155 154
-1.451557e+00 1.097072e-01 1.107066e+01 54 60 87
-1.981760e+00 1.592336e-01 1.114904e+01 50 47 64
-8.568453e-01 5.901732e-02 1.095432e+01 147 147 146
-1.051749e+00 1.076421e-01 1.090783e+01 159 159 160
-1.367203e+00 1.464917e-01 1.097678e+01 157 155 161
-1.382524e+00 1.515680e-01 1.089218e+01 65 70 101
-5.113505e-01 9.732570e-02 1.074411e+01 48 42 42
-1.529639e+00 1.699615e-01 1.085260e+01 150 148 149
-1.529639e+00 1.699615e-01 1.085260e+01 150 148 149
-1.217850e+00 1.527723e-01 1.082770e+01 74 78 107
-5.731489e-01 1.077909e-01 1.071842e+01 61 59 79
-1.816892e+00 2.409556e-01 1.078118e+01 150 150 147
-4.964870e-01 1.414838e-01 1.058193e+01 147 147 135
-4.002681e-01 1.643298e-01 1.054545e+01 143 140 132
-6.405052e-01 1.806202e-01 1.057983e+01 158 157 158
-7.733117e-01 2.049869e-01 1.048123e+01 163 163 167
-7.733117e-01 2.049869e-01 1.048123e+01 163 163 167
-9.911837e-01 2.522514e-01 1.041155e+01 163 162 164
-1.660693e+00 3.106052e-01 1.052234e+01 149 147 146
-1.225069e+00 3.165234e-01 1.019373e+01 162 160 166
-1.442521e+00 3.595134e-01 1.025397e+01 154 151 157
-1.389367e+00 3.865179e-01 1.016852e+01 154 153 149
-3.988170e+00 5.278833e-01 1.041773e+01 157 156 135
-1.538964e+00 3.933556e-01 1.008408e+01 157 160 162
-4.763579e+00 5.764304e-01 1.032947e+01 116 113 94
-7.775591e-02 3.803546e-01 9.689193e+00 88 99 125
-4.236614e+00 6.370512e-01 9.999761e+00 77 76 79
-1.275114e+00 5.084595e-01 9.776096e+00 70 73 80
-1.384560e+00 5.331917e-01 9.721683e+00 84 92 102
-3.749041e+00 6.440749e-01 9.931335e+00 154 150 137
-3.877813e+00 6.780748e-01 9.891706e+00 151 147 136
-3.848268e+00 6.761091e-01 9.832909e+00 66 64 66
-3.848268e+00 6.761091e-01 9.832909e+00 66 64 66
-4.020737e+00 7.141509e-01 9.737659e+00 78 80 78
-4.405991e-01 5.487916e-01 9.269371e+00 109 117 132
-1.157488e+00 6.050777e-01 9.407733e+00 90 98 117
-5.329467e+00 7.791153e-01 9.747856e+00 134 127 115
-4.185907e+00 7.682775e-01 9.706353e+00 143 144 146
-4.185937e+00 7.691945e-01 9.705522e+00 143 144 146
-5.138265e+00 8.720112e-01 9.390874e+00 141 138 119
-8.652927e-02 1.109447e+00 7.535871e+00 149 145 134
-1.305473e-01 1.167445e+00 7.301377e+00 75 59 44
-1.305473e-01 1.167445e+00 7.301377e+00 75 59 44
-2.836066e+00 1.575572e+00 1.082421e+01 34 34 35
-2.560820e+00 1.650386e+00 1.094869e+01 29 28 24
-2.682457e+00 1.790297e+00 1.096710e+01 14 13 11
-2.682448e+00 1.789808e+00 1.096793e+01 14 13 11
-2.436849e+00 1.992840e+00 1.060871e+01 160 159 172
-6.897372e-01 2.156546e+00 1.104458e+01 107 121 127
-2.502240e+00 3.373958e-02 1.171024e+01 127 128 97
-2.526687e+00 3.582659e-02 1.170712e+01 41 31 38
-2.477146e+00 4.422081e-02 1.168941e+01 46 37 50
-2.614373e+00 5.717071e-02 1.166697e+01 52 39 55
-3.037547e+00 7.921564e-02 1.166202e+01 123 125 87
-1.934693e+00 8.727866e-03 1.161335e+01 69 59 57
-2.759818e+00 7.980955e-02 1.162859e+01 44 36 46
-2.307439e+00 5.788990e-02 1.160351e+01 48 40 42
-2.307439e+00 5.788990e-02 1.160351e+01 48 40 42
-1.903644e+00 2.085965e-02 1.154998e+01 84 76 72
-1.901386e+00 2.211072e-02 1.154842e+01 84 76 72
-2.757760e+00 9.493920e-02 1.159338e+01 133 133 106
-1.153142e+00 -4.081308e-02 1.141691e+01 20 19 19
-1.778458e+00 2.605268e-02 1.149942e+01 65 56 74
-2.181895e+00 6.689964e-02 1.152289e+01 89 81 77
-2.181895e+00 6.689964e-02 1.152289e+01 89 81 77
-8.128699e-01 -5.973565e-02 1.134253e+01 27 23 19
-8.128699e-01 -5.973565e-02 1.134253e+01 27 23 19
-2.055644e+00 5.837671e-02 1.148871e+01 116 110 99
-1.269716e+00 3.291861e-03 1.142272e+01 27 22 22
-8.255780e-01 -4.708627e-02 1.130324e+01 34 22 22
-8.731797e-01 -4.238111e-02 1.131071e+01 43 27 32
-1.202451e+00 -5.939312e-03 1.135907e+01 135 133 120
-2.021515e+00 7.079554e-02 1.145917e+01 104 93 94
-7.854703e-01 -4.374747e-02 1.128373e+01 45 30 38
-8.741828e-01 -3.541800e-02 1.129531e+01 124 123 102
-1.295410e+00 5.490552e-03 1.134068e+01 29 20 27
-9.423786e-01 -2.165919e-02 1.127369e+01 127 127 110
-2.307133e+00 1.088971e-01 1.145380e+01 145 144 123
-1.359946e+00 2.397917e-02 1.132020e+01 27 24 20
-9.970209e-01 -1.047363e-02 1.126463e+01 35 31 35
-1.001329e+00 -1.925774e-03 1.125262e+01 127 127 108
-1.209324e+00 3.977023e-02 1.119690e+01 42 41 56
-1.274364e+00 5.545186e-02 1.117458e+01 61 58 77
-4.417469e+00 2.361345e-01 1.125977e+01 34 33 24
-4.417469e+00 2.361345e-01 1.125977e+01 34 33 24
-1.845095e+00 1.304223e-01 1.119879e+01 34 33 43
-6.812833e-01 2.861563e-02 1.102156e+01 37 32 33
-6.812833e-01 2.861563e-02 1.102156e+01 37 32 33
-9.749395e-01 8.857410e-02 1.092806e+01 76 81 111
-9.749395e-01 8.857410e-02 1.092806e+01 76 81 111
-2.076937e+00 1.853835e-01 1.108221e+01 153 153 142
-2.121679e+00 2.011521e-01 1.105448e+01 55 53 77
-1.330753e+00 1.295488e-01 1.093781e+01 73 75 112
-1.358642e+00 1.409194e-01 1.091092e+01 72 78 105
-1.899282e+00 1.964340e-01 1.097329e+01 61 64 79
-5.318785e-01 1.017159e-01 1.080904e+01 135 133 113
-5.980255e-01 1.066037e-01 1.073932e+01 147 142 139
-2.024500e+00 2.244874e-01 1.092264e+01 57 58 78
-7.487901e-01 1.236904e-01 1.072825e+01 79 85 108
-1.357335e+00 1.742305e-01 1.081509e+01 160 157 164
-1.373767e+00 1.804340e-01 1.077965e+01 71 73 110
-3.823741e-01 1.148513e-01 1.062405e+01 39 34 41
-3.823741e-01 1.148513e-01 1.062405e+01 39 34 41
-5.377139e-01 1.498005e-01 1.056862e+01 71 77 93
-5.397049e-01 1.684664e-01 1.062622e+01 68 69 91
-1.675837e+00 2.481157e-01 1.070372e+01 148 150 138
-1.028968e+00 2.002424e-01 1.058407e+01 79 86 106
-4.273655e-01 1.626597e-01 1.049726e+01 59 64 72
-7.164643e-01 1.908422e-01 1.050430e+01 156 163 159
-1.134098e+00 2.236732e-01 1.056581e+01 75 78 114
-6.932214e-01 2.070376e-01 1.045061e+01 159 162 162
-6.932214e-01 2.070376e-01 1.045061e+01 159 162 162
-1.312336e+00 2.732560e-01 1.055271e+01 156 153 157
-1.435697e+00 2.951053e-01 1.047451e+01 146 148 142
-1.691304e+00 3.166442e-01 1.050275e+01 148 145 146
-1.146517e+00 3.342028e-01 1.026729e+01 162 161 159
-1.145291e+00 3.339725e-01 1.026194e+01 162 161 159
-1.324167e+00 3.434746e-01 1.026921e+01 57 68 85
-1.593464e+00 3.878828e-01 1.016014e+01 155 157 156
-3.975650e-01 3.429142e-01 1.003843e+01 169 170 175
-4.662199e+00 5.514316e-01 1.034004e+01 160 156 138
-2.723893e+00 6.187510e-01 1.061086e+01 68 65 55
-7.610512e-01 5.159262e-01 9.573384e+00 59 79 106
-1.135473e+00 5.432502e-01 9.616364e+00 106 107 109
-3.771383e+00 6.828097e-01 9.879535e+00 154 147 130
-4.820208e-01 5.302841e-01 9.502135e+00 101 112 124
-3.931288e+00 6.913689e-01 9.862611e+00 152 149 136
-3.932484e+00 6.917675e-01 9.870694e+00 152 149 136
-3.820813e+00 6.968641e-01 9.866202e+00 154 152 134
-3.886987e+00 6.953036e-01 9.853688e+00 103 104 100
-3.854165e+00 6.966679e-01 9.816658e+00 156 147 142
-4.186741e+00 7.262968e-01 9.734210e+00 92 90 95
-4.161682e+00 7.374127e-01 9.808585e+00 92 90 95
-5.022115e-01 5.638846e-01 9.343745e+00 88 101 116
-3.987339e+00 7.367334e-01 9.787795e+00 157 153 143
-4.228581e+00 7.366553e-01 9.724764e+00 108 108 119
-4.205924e+00 7.464704e-01 9.790417e+00 108 108 119
-4.192557e+00 7.513085e-01 9.739663e+00 158 152 143
-4.060151e+00 7.497135e-01 9.740557e+00 160 155 147
-4.099458e+00 7.561055e-01 9.709910e+00 162 157 152
-4.253874e+00 7.966895e-01 9.654050e+00 159 156 149
-5.586892e-01 6.396649e-01 9.138303e+00 160 160 155
-7.337860e-01 6.633812e-01 9.126356e+00 52 57 57
-3.864172e+00 8.691925e-01 9.293762e+00 176 172 172
-3.809359e+00 8.743863e-01 9.262180e+00 178 175 179
-3.854959e+00 8.743187e-01 9.253835e+00 109 112 131
-1.010942e+00 7.848224e-01 8.817704e+00 98 109 129
-3.433708e+00 9.896395e-01 8.874752e+00 182 185 188
-3.550138e+00 1.008505e+00 8.746242e+00 179 177 179
-3.550784e+00 1.007737e+00 8.740799e+00 179 177 179
-2.799374e+00 1.155713e+00 1.072602e+01 70 65 52
-3.657929e+00 1.036646e+00 8.742534e+00 180 179 183
-3.693810e+00 1.046354e+00 8.658322e+00 178 179 178
-2.861813e+00 1.238622e+00 1.071188e+01 51 45 43
-3.330146e+00 1.138407e+00 8.329440e+00 175 173 174
-2.847845e+00 1.269971e+00 1.075857e+01 40 39 35
-2.716603e-02 1.103274e+00 7.494007e+00 153 149 139
-3.659681e-02 1.138333e+00 7.377107e+00 76 67 44
-8.539186e-02 1.150553e+00 7.355904e+00 70 64 36
-3.445243e-01 1.175335e+00 7.384298e+00 150 146 135
-1.893236e-01 1.178467e+00 7.307923e+00 84 82 49
-2.934744e-01 1.198713e+00 7.246958e+00 94 87 61
-3.890849e-01 1.229119e+00 7.225212e+00 79 71 53
-2.675983e+00 1.762943e+00 1.096887e+01 17 15 14
-2.761661e+00 1.785525e+00 1.093385e+01 16 15 12
-6.955172e-01 2.173688e+00 1.097757e+01 110 115 134
-2.781338e+00 4.515696e-02 1.173336e+01 140 135 116
-2.905906e+00 7.323351e-02 1.167335e+01 136 133 124
-3.036532e+00 8.025141e-02 1.166413e+01 121 123 85
-2.731396e+00 8.182874e-02 1.164430e+01 123 125 96
-2.731396e+00 8.182874e-02 1.164430e+01 123 125 96
-1.840736e+00 7.791858e-03 1.156835e+01 83 69 82
-1.898379e+00 1.570447e-02 1.155881e+01 147 149 118
-2.189759e+00 4.974342e-02 1.159254e+01 156 152 133
-2.756556e+00 8.707610e-02 1.161601e+01 126 127 94
-2.645762e+00 8.572796e-02 1.160913e+01 65 48 70
-2.988849e+00 1.082136e-01 1.162590e+01 145 140 123
-2.348260e+00 1.008289e-01 1.150247e+01 62 48 74
-1.312441e+00 -1.004920e-03 1.136495e+01 42 34 54
-2.921939e+00 1.485275e-01 1.147038e+01 127 132 92
-6.375563e-01 5.643347e-03 1.107142e+01 48 36 48
-1.921264e+00 1.393821e-01 1.119984e+01 36 34 47
-7.648161e-01 3.723262e-02 1.102696e+01 42 39 36
-1.970540e+00 1.647611e-01 1.112951e+01 150 152 148
-1.942584e+00 1.620137e-01 1.111282e+01 63 62 87
-1.942584e+00 1.620137e-01 1.111282e+01 63 62 87
-1.223009e+00 1.110398e-01 1.096498e+01 73 79 99
-1.720515e+00 1.585550e-01 1.103862e+01 50 47 73
-1.287560e+00 1.257450e-01 1.094885e+01 74 80 100
-1.376794e+00 1.364551e-01 1.094691e+01 69 72 103
-1.376113e+00 1.360601e-01 1.094521e+01 69 72 103
-1.807628e+00 1.769200e-01 1.101018e+01 65 64 78
-1.841209e+00 1.851030e-01 1.099868e+01 58 61 79
-1.844620e+00 1.892974e-01 1.101794e+01 58 61 79
-5.534279e-01 9.985806e-02 1.082324e+01 32 33 26
-1.449761e+00 1.621389e-01 1.088887e+01 65 68 90
-1.814260e+00 1.967272e-01 1.094593e+01 66 67 87
-5.266439e-01 9.147253e-02 1.075206e+01 138 128 130
-5.907011e-01 9.850494e-02 1.075390e+01 57 57 65
-1.414381e+00 1.825375e-01 1.081090e+01 67 72 94
-1.634344e+00 2.061034e-01 1.083738e+01 54 58 84
-1.667578e+00 2.205302e-01 1.078552e+01 57 55 78
-4.861055e-01 1.359149e-01 1.060056e+01 58 60 69
-4.861055e-01 1.359149e-01 1.060056e+01 58 60 69
-1.777676e+00 2.432369e-01 1.078018e+01 150 152 142
-1.681238e+00 2.329676e-01 1.075241e+01 147 145 133
-5.176733e-01 1.414088e-01 1.058473e+01 70 70 87
-1.600008e+00 2.299221e-01 1.074665e+01 142 145 132
-1.609502e+00 2.285036e-01 1.073526e+01 44 41 57
-1.930508e+00 2.627122e-01 1.075004e+01 49 52 64
-1.648298e+00 2.421554e-01 1.070004e+01 142 145 127
-1.010616e+00 1.933709e-01 1.060162e+01 76 81 108
-1.025832e+00 1.954671e-01 1.060614e+01 157 162 164
-9.332673e-01 1.915165e-01 1.058765e+01 86 90 119
-3.996871e-01 1.524816e-01 1.050610e+01 54 53 58
-4.322457e-01 1.740127e-01 1.053487e+01 147 148 135
-1.086405e+00 2.147740e-01 1.056270e+01 81 91 117
-5.192178e-01 1.947855e-01 1.052127e+01 154 151 146
-6.164316e-01 2.138251e-01 1.051940e+01 85 89 107
-6.164316e-01 2.138251e-01 1.051940e+01 85 89 107
-8.074897e-01 2.110381e-01 1.047626e+01 159 163 163
-7.859143e-01 2.107852e-01 1.046265e+01 86 91 117
-1.227244e+00 2.434482e-01 1.052429e+01 154 159 163
-5.969197e-01 1.990883e-01 1.042323e+01 82 87 114
-1.238277e+00 2.516449e-01 1.051870e+01 74 79 98
-1.345350e+00 2.646096e-01 1.051007e+01 69 73 112
-1.354507e+00 2.838358e-01 1.047680e+01 73 79 109
-7.522152e-01 2.388669e-01 1.037413e+01 159 167 157
-1.667044e+00 3.076355e-01 1.050637e+01 148 147 137
-1.802247e+00 3.309012e-01 1.046251e+01 79 77 95
-1.134313e+00 2.879650e-01 1.037161e+01 78 83 108
-9.479349e-01 2.793600e-01 1.032666e+01 81 89 116
-1.798396e+00 3.415420e-01 1.044177e+01 157 158 152
-1.008952e+00 2.933428e-01 1.030270e+01 77 84 111
-1.131840e+00 3.231129e-01 1.026851e+01 75 87 111
-1.083019e+00 3.215642e-01 1.024876e+01 81 89 107
-1.229979e-01 2.782217e-01 1.018112e+01 141 135 121
-1.472779e+00 4.084373e-01 1.013674e+01 63 64 76
-1.487083e+00 4.148080e-01 1.014178e+01 155 154 155
-1.512768e+00 4.127019e-01 1.012754e+01 74 82 103
-3.958756e+00 5.940794e-01 1.019605e+01 149 144 126
2.189011e-01 4.295509e-01 9.551295e+00 138 135 141
-1.213589e+00 5.222971e-01 9.721043e+00 66 68 72
-8.226487e-01 5.141032e-01 9.620140e+00 69 75 98
-3.863263e+00 6.640612e-01 9.942750e+00 107 102 107
-3.871056e+00 6.595327e-01 9.914912e+00 107 102 107
-3.899193e+00 6.724080e-01 9.926093e+00 103 101 105
-3.942652e+00 6.840507e-01 9.911165e+00 97 97 103
-3.674871e+00 6.744802e-01 9.859572e+00 149 148 128
-3.948969e+00 6.940926e-01 9.879096e+00 150 146 135
-3.796090e+00 6.930217e-01 9.869985e+00 152 147 128
-4.235481e-01 5.358955e-01 9.379271e+00 108 118 129
-5.926452e-01 5.849281e-01 9.393525e+00 120 120 128
-1.132514e+00 6.121210e-01 9.421769e+00 118 118 126
-1.261391e+00 6.221514e-01 9.397413e+00 161 161 161
-1.258377e+00 6.176493e-01 9.384774e+00 161 161 161
-4.228491e+00 7.950820e-01 9.668752e+00 161 156 152
-2.900980e+00 9.270771e-01 1.060787e+01 61 58 47
-9.506311e-01 6.846691e-01 9.110727e+00 80 95 111
-2.066825e-01 6.525617e-01 8.940827e+00 114 126 154
-3.894865e+00 8.256567e-01 9.405776e+00 168 165 154
-3.889632e+00 8.303019e-01 9.423629e+00 168 165 154
-5.071048e+00 8.725052e-01 9.459492e+00 131 134 100
-3.669148e+00 8.330764e-01 9.342152e+00 109 115 132
-3.945491e+00 8.526052e-01 9.363819e+00 114 114 120
-3.677359e+00 8.475215e-01 9.321892e+00 177 176 182
-5.110390e+00 9.095671e-01 9.313064e+00 81 73 60
-4.030309e+00 8.780745e-01 9.266554e+00 167 164 161
-4.039004e+00 8.865735e-01 9.306494e+00 166 165 159
-3.963631e+00 8.959827e-01 9.188137e+00 110 109 124
-3.963631e+00 8.959827e-01 9.188137e+00 110 109 124
-2.872689e+00 1.070710e+00 1.066336e+01 52 46 39
-3.393407e+00 9.628589e-01 8.931856e+00 182 183 185
-3.300716e+00 9.626823e-01 8.862083e+00 176 177 174
-3.371266e+00 9.772033e-01 8.830449e+00 178 176 172
-3.371266e+00 9.772033e-01 8.830449e+00 178 176 172
-3.428752e+00 1.011658e+00 8.759407e+00 109 115 135
-3.727640e+00 1.027252e+00 8.761148e+00 105 112 129
-2.803387e+00 1.226544e+00 1.074503e+01 43 33 25
-1.124894e+00 1.052912e+00 7.947722e+00 88 113 126
-2.652678e+00 1.365021e+00 1.087102e+01 92 80 65
-4.118465e-01 1.244782e+00 7.203070e+00 156 151 140
-2.828426e+00 1.441393e+00 1.078874e+01 95 83 59
-2.654819e+00 1.457517e+00 1.089832e+01 19 16 17
-2.613658e+00 1.735104e+00 1.099729e+01 45 46 31
-2.325034e+00 2.051342e+00 1.036736e+01 161 163 175
-2.392009e+00 6.147848e-01 1.276911e+01 162 161 126
-1.213973e+00 -7.345906e-03 1.134901e+01 56 49 67
-1.213973e+00 -7.345906e-03 1.134901e+01 56 49 67
-1.430990e+00 3.163998e-02 1.132577e+01 128 133 101
-1.026903e+00 2.368866e-02 1.127657e+01 59 48 45
-6.226663e-01 1.664243e-02 1.104260e+01 60 53 43
-1.379166e+00 8.671383e-02 1.113052e+01 151 152 146
-1.032385e+00 1.133812e-01 1.088072e+01 160 159 170
-2.054462e+00 2.319250e-01 1.092025e+01 72 71 96
-3.706589e-01 2.042351e-01 1.046600e+01 142 139 127
-6.779834e-01 2.295970e-01 1.046206e+01 147 156 166
-1.427998e+00 2.869873e-01 1.048773e+01 50 52 70
-1.744037e+00 3.202330e-01 1.050267e+01 62 60 83
-1.733220e+00 3.228289e-01 1.050550e+01 141 144 126
-1.088235e+00 2.790285e-01 1.038857e+01 162 163 174
-1.160034e+00 2.911676e-01 1.038092e+01 81 85 114
-1.686322e+00 3.481478e-01 1.037167e+01 48 49 62
-4.960469e-01 2.801495e-01 1.022945e+01 88 101 116
-1.683375e+00 3.598399e-01 1.034718e+01 62 65 87
-4.103266e+00 5.041871e-01 1.055573e+01 81 75 83
-8.596707e-01 3.318375e-01 1.021944e+01 160 161 166
-1.385636e+00 3.977981e-01 1.018954e+01 153 153 154
-1.689523e+00 4.169894e-01 1.019493e+01 74 73 87
-4.561715e+00 5.711636e-01 1.045955e+01 111 100 99
-1.521810e+00 4.205948e-01 1.011647e+01 153 158 155
-4.786707e+00 5.803750e-01 1.030152e+01 134 136 106
-4.786707e+00 5.803750e-01 1.030152e+01 134 136 106
-1.542916e+00 4.354497e-01 1.008923e+01 79 81 106
-1.566810e+00 4.385830e-01 1.009003e+01 82 84 103
-4.779305e+00 5.848247e-01 1.027982e+01 142 137 112
-4.779305e+00 5.848247e-01 1.027982e+01 142 137 112
-1.446836e+00 4.610607e-01 9.959088e+00 158 165 159
-4.029828e+00 6.043607e-01 1.016950e+01 138 137 116
-4.048052e+00 5.952994e-01 1.011474e+01 138 137 116
-3.995734e+00 6.079708e-01 1.015507e+01 79 75 79
-2.885011e+00 6.549110e-01 1.053538e+01 65 63 50
-1.774718e-01 4.224260e-01 9.752639e+00 121 133 155
-1.349861e-01 4.203158e-01 9.652105e+00 167 169 181
-1.238501e+00 5.050317e-01 9.811075e+00 150 147 134
-8.622555e-01 5.273346e-01 9.599159e+00 74 78 87
-4.096796e+00 6.813978e-01 9.892162e+00 154 149 137
-7.460592e-01 5.334422e-01 9.552576e+00 145 147 143
-4.830045e+00 7.073162e-01 9.858379e+00 142 140 113
-3.666584e+00 6.785340e-01 9.839057e+00 82 77 85
-4.093665e+00 7.007754e-01 9.898844e+00 75 75 86
-3.697812e+00 6.954127e-01 9.792727e+00 156 159 145
-4.090214e+00 7.060371e-01 9.794655e+00 99 96 97
-4.001638e+00 7.227109e-01 9.745431e+00 155 154 148
-1.150976e+00 6.025160e-01 9.421290e+00 76 87 106
-2.574860e+00 8.820754e-01 1.062886e+01 66 60 48
-3.773267e+00 7.726023e-01 9.570133e+00 153 158 149
-2.792986e+00 9.311350e-01 1.066972e+01 93 87 61
-3.818409e+00 8.208662e-01 9.413977e+00 127 129 138
-2.896420e+00 9.594339e-01 1.063586e+01 94 87 62
-3.857840e+00 8.425126e-01 9.380145e+00 168 167 162
-4.050359e+00 8.547721e-01 9.407981e+00 162 163 152
-4.052500e+00 8.786277e-01 9.322044e+00 116 115 121
-4.052500e+00 8.786277e-01 9.322044e+00 116 115 121
-3.486962e+00 8.627126e-01 9.238150e+00 109 118 146
-2.875474e+00 1.005999e+00 1.064259e+01 46 43 34
-3.848027e+00 8.819359e-01 9.208893e+00 176 174 175
-2.023593e+00 8.190392e-01 9.026534e+00 112 122 132
-2.730966e+00 1.080925e+00 1.074452e+01 94 83 60
-2.843463e+00 1.096027e+00 1.068414e+01 59 50 43
-2.820128e+00 1.100964e+00 1.069833e+01 97 86 68
-3.351290e+00 9.605159e-01 8.878107e+00 105 115 130
-3.199458e+00 9.581472e-01 8.788048e+00 79 88 97
-3.422814e+00 9.718373e-01 8.893249e+00 104 118 140
-3.422814e+00 9.718373e-01 8.893249e+00 104 118 140
-3.234279e+00 9.657317e-01 8.849745e+00 82 91 103
-3.281849e+00 9.666677e-01 8.861300e+00 86 100 116
-3.422176e+00 9.685765e-01 8.811064e+00 113 123 145
-3.422176e+00 9.685765e-01 8.811064e+00 113 123 145
-3.507285e+00 9.731592e-01 8.844089e+00 117 124 149
-3.565652e+00 9.884447e-01 8.843811e+00 111 119 136
-2.877458e+00 1.126949e+00 1.068499e+01 22 17 18
-2.877458e+00 1.126949e+00 1.068499e+01 22 17 18
-3.300982e+00 9.823611e-01 8.816243e+00 100 102 122
-3.335758e+00 9.896915e-01 8.795176e+00 94 113 127
-3.617285e+00 1.009040e+00 8.750631e+00 113 121 140
-3.571998e+00 1.030749e+00 8.712364e+00 104 112 123
-9.742581e-01 9.633590e-01 8.218302e+00 84 93 102
-3.848767e+00 1.066613e+00 8.621824e+00 124 125 148
-3.780179e+00 1.101020e+00 8.559344e+00 119 126 140
-6.063159e+00 1.214487e+00 8.287355e+00 93 83 66
-6.063159e+00 1.214487e+00 8.287355e+00 93 83 66
-4.164713e+00 1.177797e+00 8.373125e+00 124 121 120
-6.027556e+00 1.237233e+00 8.229099e+00 49 42 27
-5.976594e+00 1.239474e+00 8.168272e+00 53 46 28
-4.909066e-01 1.123240e+00 7.560168e+00 115 113 97
-6.081616e-01 1.160930e+00 7.504863e+00 120 117 116
-4.597811e-01 1.178985e+00 7.388690e+00 104 99 83
-5.345203e-01 1.212694e+00 7.290743e+00 105 105 96
-2.727632e+00 1.371242e+00 1.082704e+01 43 39 32
-2.728365e+00 1.400256e+00 1.083684e+01 90 81 65
-2.787906e+00 1.470868e+00 1.082352e+01 47 41 35
-2.779152e+00 1.477325e+00 1.082920e+01 85 77 58
-2.832410e+00 1.481530e+00 1.080123e+01 33 31 28
-2.789258e+00 1.499754e+00 1.083186e+01 95 87 72
-2.637221e+00 1.670011e+00 1.096484e+01 47 47 37
-2.730533e+00 1.694109e+00 1.091928e+01 61 61 53
-2.664557e+00 1.748315e+00 1.097164e+01 97 90 75
-2.664505e+00 1.748592e+00 1.097436e+01 97 90 75
-2.702505e+00 1.774800e+00 1.095786e+01 20 16 12
-2.741893e+00 1.777355e+00 1.093449e+01 90 89 73
-2.651338e+00 1.806921e+00 1.099524e+01 19 16 11
-2.651236e+00 1.807354e+00 1.099686e+01 19 16 11
-2.570907e+00 1.859859e+00 1.103717e+01 139 132 126
-2.149206e+00 7.965566e-02 1.149057e+01 114 108 87
-3.008450e+00 1.729671e-01 1.145790e+01 152 148 128
-1.001400e+00 1.134614e-02 1.123138e+01 134 134 126
2.212092e+00 -3.298001e+00 2.405683e+00 137 135 143
-2.009788e+00 1.543671e-01 1.116302e+01 76 70 96
-7.645869e-01 6.881323e-02 1.106630e+01 64 54 79
-2.048591e+00 1.782844e-01 1.112045e+01 141 145 131
-6.475719e-01 1.301671e-01 1.080589e+01 140 141 135
-1.289917e+00 1.597252e-01 1.080951e+01 146 145 152
-6.374724e-01 1.315398e-01 1.078340e+01 95 91 103
-1.639092e+00 1.962426e-01 1.083369e+01 137 133 127
-1.807699e+00 2.387861e-01 1.082013e+01 75 76 101
-3.932391e+00 3.867799e-01 1.089711e+01 96 95 74
-1.762622e+00 2.627441e-01 1.068826e+01 142 142 132
-5.047786e-01 1.986430e-01 1.050913e+01 103 103 110
-5.047786e-01 1.986430e-01 1.050913e+01 103 103 110
-3.128291e-01 2.315465e-01 1.035743e+01 139 138 133
-1.095193e+00 2.798200e-01 1.037950e+01 159 158 158
-1.085364e+00 2.826492e-01 1.035625e+01 102 108 121
-1.796816e+00 3.468336e-01 1.041371e+01 101 98 107
-4.571633e+00 5.635693e-01 1.047758e+01 112 106 101
-4.231630e-01 3.393643e-01 1.006005e+01 112 115 130
-4.695204e+00 5.645590e-01 1.032840e+01 106 96 97
-3.945030e+00 5.756575e-01 1.017826e+01 77 70 71
-8.271223e-02 3.867839e-01 9.763489e+00 127 136 143
-4.844923e-02 3.713804e-01 9.699809e+00 127 136 143
-7.024692e+00 -3.933233e-01 4.782026e+00 70 65 53
-4.013931e+00 6.021872e-01 1.019132e+01 64 59 57
-4.031522e+00 5.916596e-01 1.013850e+01 64 59 57
-7.045855e+00 -3.800159e-01 4.751247e+00 143 147 120
-4.081193e+00 6.256036e-01 1.013597e+01 66 64 71
-3.724505e+00 6.601604e-01 9.915795e+00 80 70 78
-3.657199e+00 6.677123e-01 9.869777e+00 85 84 72
-1.395195e+00 5.928412e-01 9.641048e+00 104 105 117
-3.686766e+00 6.938354e-01 9.784094e+00 80 80 83
-4.165435e+00 7.196014e-01 9.731538e+00 152 148 145
-1.274248e+00 6.117267e-01 9.452262e+00 100 116 133
-4.119431e+00 7.317374e-01 9.701395e+00 86 86 85
4.439762e-01 5.352458e-01 9.085769e+00 154 166 188
-3.750404e+00 7.683805e-01 9.575377e+00 165 162 166
1.566331e-01 6.037619e-01 8.967238e+00 153 164 189
-2.781113e+00 9.280365e-01 1.067639e+01 92 80 61
-7.463329e-01 6.741089e-01 9.115592e+00 77 78 83
-2.781886e+00 9.569658e-01 1.068657e+01 58 49 40
-2.885491e+00 9.510789e-01 1.060712e+01 95 85 60
-3.636664e+00 8.260645e-01 9.393101e+00 105 109 125
-5.097936e+00 8.826799e-01 9.538963e+00 142 138 111
-3.358110e+00 8.295304e-01 9.265146e+00 103 104 122
-3.471727e+00 8.497968e-01 9.281873e+00 97 104 129
-3.798239e+00 8.586938e-01 9.288777e+00 98 105 117
-7.691888e-01 7.306587e-01 8.612103e+00 164 163 158
-3.792492e+00 9.349455e-01 9.070646e+00 182 183 188
-3.934565e+00 9.536904e-01 9.000257e+00 175 173 180
-2.757640e+00 1.087661e+00 1.072866e+01 81 72 53
-2.887122e+00 1.089165e+00 1.067960e+01 93 88 66
-3.280822e+00 9.486272e-01 8.924955e+00 109 112 119
-3.288270e+00 9.440553e-01 8.867353e+00 109 112 119
-3.182943e+00 9.503907e-01 8.877617e+00 158 157 158
-3.342336e+00 9.749635e-01 8.912870e+00 180 177 184
-3.461814e+00 9.759787e-01 8.823908e+00 127 132 154
-3.547211e+00 1.030222e+00 8.670625e+00 170 173 178
-3.639606e+00 1.035899e+00 8.704616e+00 173 172 170
-3.216027e+00 1.022266e+00 8.581770e+00 100 106 101
-3.265090e+00 1.034127e+00 8.630605e+00 162 159 160
-3.237192e+00 1.036682e+00 8.638503e+00 90 99 100
-3.247607e+00 1.043205e+00 8.618741e+00 165 167 167
-3.264960e+00 1.045014e+00 8.604132e+00 102 105 106
-3.571483e+00 1.055573e+00 8.660080e+00 113 119 135
-3.402189e+00 1.054011e+00 8.558342e+00 169 173 171
-3.514172e+00 1.100538e+00 8.515681e+00 119 122 133
-4.057586e+00 1.120110e+00 8.565920e+00 131 129 134
-4.222836e+00 1.137082e+00 8.477546e+00 133 132 135
-3.646294e+00 1.126656e+00 8.481492e+00 173 178 186
-3.351822e+00 1.124439e+00 8.391910e+00 166 169 172
-5.646629e-01 1.056646e+00 7.785728e+00 129 134 128
-1.677212e+00 1.099122e+00 8.034878e+00 138 144 150
-2.212525e-01 1.062092e+00 7.680209e+00 118 114 97
-2.212525e-01 1.062092e+00 7.680209e+00 118 114 97
-3.355493e+00 1.173896e+00 8.262964e+00 142 148 162
-4.337961e+00 1.199719e+00 8.331671e+00 157 162 168
-3.062237e-01 1.080125e+00 7.641453e+00 107 105 86
-2.647948e-01 1.123821e+00 7.497519e+00 113 111 94
-5.789582e+00 1.323410e+00 7.940858e+00 99 88 66
-5.914332e+00 1.325897e+00 7.907572e+00 89 81 64
-5.386062e+00 1.422889e+00 7.631939e+00 58 54 45
-2.849476e+00 1.449144e+00 1.077846e+01 89 79 61
-2.711536e+00 1.480339e+00 1.087098e+01 94 82 65
-2.715939e+00 1.536316e+00 1.088311e+01 29 19 12
-2.632030e+00 1.737767e+00 1.098719e+01 88 84 73
-2.766157e+00 1.775702e+00 1.092063e+01 19 18 10
-2.806638e+00 1.811998e+00 1.090585e+01 79 78 67
-2.806647e+00 1.811914e+00 1.090561e+01 79 78 67
-2.690673e+00 1.819911e+00 1.097600e+01 25 23 11
-2.690673e+00 1.819911e+00 1.097600e+01 25 23 11
