ply
format ascii 1.0
element face 0
property list uchar int vertex_indices
element vertex 947
property float x
property float y
property float z
property uchar diffuse_red
property uchar diffuse_green
property uchar diffuse_blue
end_header
-1.218090e+00 3.057212e-01 1.031308e+01 72 74 98
-1.692059e+00 2.838869e-01 1.051033e+01 52 42 65
-1.144204e+00 3.211348e-01 1.027928e+01 66 72 95
-1.144204e+00 3.211348e-01 1.027928e+01 66 72 95
-1.497995e+00 2.977012e-01 1.040230e+01 48 45 57
-1.497995e+00 2.977012e-01 1.040230e+01 48 45 57
-1.760485e+00 3.072075e-01 1.050356e+01 89 91 108
-1.243780e+00 3.391356e-01 1.023172e+01 86 85 116
-1.094844e+00 3.542094e-01 1.016420e+01 74 81 110
-1.345787e+00 3.295231e-01 1.023375e+01 59 65 87
-1.345787e+00 3.295231e-01 1.023375e+01 59 65 87
-1.270703e+00 3.506172e-01 1.022190e+01 70 74 85
-1.270392e+00 3.501300e-01 1.021793e+01 70 74 85
-1.410560e+00 3.458063e-01 1.026999e+01 155 158 148
-1.430652e+00 3.385447e-01 1.025979e+01 61 60 76
-1.432700e+00 3.448829e-01 1.028179e+01 61 60 76
-1.381614e+00 3.387326e-01 1.021951e+01 61 62 95
-1.285948e+00 3.545924e-01 1.019390e+01 163 162 158
-1.651842e+00 3.323567e-01 1.032853e+01 50 49 72
-1.670876e+00 3.287763e-01 1.032391e+01 161 165 152
-1.411803e+00 3.511855e-01 1.022919e+01 63 61 98
-1.411803e+00 3.511855e-01 1.022919e+01 63 61 98
-1.286569e+00 3.543240e-01 1.014307e+01 67 73 105
-1.639811e+00 3.327028e-01 1.028615e+01 62 58 84
-1.659437e+00 3.431225e-01 1.032894e+01 152 152 142
-1.658602e+00 3.340478e-01 1.029636e+01 152 152 142
-1.703386e+00 3.470177e-01 1.036692e+01 168 170 163
-1.677284e+00 3.393408e-01 1.031757e+01 49 51 68
-1.677284e+00 3.393408e-01 1.031757e+01 49 51 68
-1.402255e+00 3.740981e-01 1.011756e+01 52 53 74
-1.442397e+00 3.797756e-01 1.009114e+01 56 56 80
-1.442397e+00 3.797756e-01 1.009114e+01 56 56 80
-1.544531e+00 3.699225e-01 1.012380e+01 63 66 100
-1.630338e+00 3.768775e-01 1.014227e+01 57 54 71
-1.470843e+00 3.943733e-01 1.000975e+01 65 67 82
-1.499825e+00 4.102223e-01 1.004937e+01 63 65 87
-8.628831e-01 4.771310e-01 9.701032e+00 129 136 144
-1.349618e+00 4.492051e-01 9.880024e+00 167 166 151
-1.265380e+00 4.453359e-01 9.802821e+00 76 85 119
-1.487434e+00 4.491938e-01 9.939226e+00 175 172 167
-1.487469e+00 4.494150e-01 9.939285e+00 175 172 167
-4.790165e-01 5.328408e-01 9.447634e+00 162 158 158
-3.939716e+00 3.554009e-01 1.107910e+01 157 146 147
-7.086532e-01 5.575788e-01 9.373183e+00 80 100 126
-4.031657e+00 3.663111e-01 1.098941e+01 64 61 54
-3.951560e+00 4.125960e-01 1.105460e+01 86 84 72
-2.563126e+00 6.171677e-01 1.040964e+01 64 48 39
-2.267490e+00 5.792425e-01 9.746006e+00 159 155 153
-2.809817e+00 6.304956e-01 1.061499e+01 69 64 45
-2.809817e+00 6.304956e-01 1.061499e+01 69 64 45
6.273932e-02 8.741072e-01 8.213176e+00 64 100 111
-2.597079e+00 8.103200e-01 1.058090e+01 64 54 42
1.324334e-02 9.245212e-01 8.136834e+00 174 167 173
1.324334e-02 9.245212e-01 8.136834e+00 174 167 173
-2.650011e+00 8.205693e-01 1.063378e+01 64 50 38
-2.566985e+00 8.211485e-01 1.051491e+01 60 53 47
-2.556613e+00 8.261043e-01 1.049190e+01 67 52 45
-2.607168e+00 8.359165e-01 1.058119e+01 55 47 38
-2.591015e+00 8.461004e-01 1.056038e+01 64 47 32
-2.591015e+00 8.461004e-01 1.056038e+01 64 47 32
-4.016321e+00 6.074769e-01 1.030607e+01 152 151 125
-4.053531e+00 5.906210e-01 1.023319e+01 152 151 125
-4.589007e+00 5.596132e-01 1.059331e+01 158 151 140
-4.116160e+00 5.916192e-01 1.018457e+01 157 149 128
-2.613796e+00 8.716360e-01 1.059677e+01 62 47 37
-2.613796e+00 8.716360e-01 1.059677e+01 62 47 37
-2.466626e+00 8.681428e-01 1.028064e+01 67 57 47
-2.586498e+00 8.883366e-01 1.062089e+01 60 47 41
-2.501518e+00 8.872043e-01 1.038085e+01 63 56 45
-2.501518e+00 8.872043e-01 1.038085e+01 63 56 45
-2.513782e+00 9.182158e-01 1.042963e+01 64 54 44
-2.513782e+00 9.182158e-01 1.042963e+01 64 54 44
-2.426326e+00 9.258804e-01 1.028950e+01 65 56 48
-2.439175e+00 9.139330e-01 1.020732e+01 65 56 48
-3.886527e+00 6.942977e-01 9.860441e+00 163 158 141
1.189594e-01 1.089687e+00 7.538792e+00 106 98 98
-2.466247e+00 9.388681e-01 1.028215e+01 61 52 45
1.002641e-01 1.092204e+00 7.453174e+00 107 101 101
-2.502974e+00 9.610112e-01 1.040444e+01 58 49 39
-2.502974e+00 9.610112e-01 1.040444e+01 58 49 39
-2.480697e+00 9.710159e-01 1.044259e+01 60 48 39
-2.494545e+00 9.607451e-01 1.036542e+01 60 48 39
-2.740243e+00 9.605942e-01 1.075769e+01 77 61 52
-4.218651e+00 6.827210e-01 9.952471e+00 155 150 129
-2.340033e+00 9.685376e-01 9.975621e+00 59 51 41
-2.432108e+00 9.985500e-01 1.031679e+01 65 58 47
-2.440331e+00 9.917819e-01 1.026036e+01 65 58 47
-2.365991e+00 9.970462e-01 1.010186e+01 70 54 43
-9.695611e-01 1.080468e+00 7.716043e+00 192 200 212
-2.346243e+00 1.048613e+00 1.020685e+01 56 44 32
-2.337641e+00 1.047525e+00 9.990674e+00 62 49 33
-2.320760e+00 1.061434e+00 1.012321e+01 62 49 33
-3.669467e+00 8.183208e-01 9.341014e+00 115 125 152
-3.699800e+00 8.070869e-01 9.250465e+00 115 125 152
-4.260979e+00 7.555408e-01 9.654806e+00 117 112 116
-2.304878e+00 1.066365e+00 1.005606e+01 55 45 35
-4.309424e+00 7.934030e-01 9.666826e+00 152 149 130
-3.966232e+00 8.250853e-01 9.307771e+00 118 118 122
-3.806827e+00 8.411069e-01 9.155876e+00 187 191 195
-3.913828e+00 8.456275e-01 9.381979e+00 171 168 163
-3.960519e+00 8.368978e-01 9.357422e+00 118 119 122
-2.898119e+00 1.062311e+00 1.068403e+01 69 59 50
-2.898119e+00 1.062311e+00 1.068403e+01 69 59 50
-3.991093e+00 8.434829e-01 9.266217e+00 165 163 154
-4.412987e+00 8.019182e-01 9.680784e+00 105 102 94
-4.037500e+00 8.393604e-01 9.264031e+00 110 108 114
-4.037500e+00 8.393604e-01 9.264031e+00 110 108 114
-4.010353e+00 8.581032e-01 9.223160e+00 114 113 120
-4.082640e+00 8.490200e-01 9.243997e+00 107 107 113
-4.411048e+00 8.203130e-01 9.527130e+00 159 150 135
-4.061014e+00 8.559732e-01 9.226283e+00 169 169 161
-4.421506e+00 8.316784e-01 9.556460e+00 79 71 61
-3.776794e+00 8.927483e-01 8.958953e+00 119 134 160
-4.050709e+00 8.657934e-01 9.191271e+00 116 115 121
-4.581219e+00 8.025318e-01 9.585461e+00 145 147 110
-2.909232e+00 1.096525e+00 1.067773e+01 65 56 48
-4.136315e+00 8.792591e-01 9.136469e+00 116 116 118
-4.136315e+00 8.792591e-01 9.136469e+00 116 116 118
-4.155499e+00 8.803797e-01 9.184554e+00 166 166 155
-4.155499e+00 8.803797e-01 9.184554e+00 166 166 155
-2.565379e+00 1.162648e+00 1.064884e+01 49 41 25
-2.554427e+00 1.167491e+00 1.070232e+01 49 41 25
-3.925663e+00 9.184879e-01 8.888781e+00 127 137 162
-4.202306e+00 8.882388e-01 9.155774e+00 169 169 157
-4.206841e+00 8.976501e-01 9.250778e+00 117 113 115
-4.223629e+00 8.922193e-01 9.213174e+00 117 113 115
-4.100771e+00 9.165832e-01 9.133579e+00 110 110 119
-4.116073e+00 9.141172e-01 9.025645e+00 175 171 167
-1.883488e+00 1.187972e+00 7.480746e+00 131 150 184
-3.740567e+00 9.770426e-01 8.505630e+00 191 199 210
-2.887818e+00 1.173971e+00 1.072909e+01 63 53 51
-2.708108e+00 1.205235e+00 1.084698e+01 41 35 23
-3.827880e+00 1.033577e+00 8.322157e+00 193 193 201
-4.405922e+00 9.882562e-01 8.906769e+00 167 164 148
-1.772880e+00 1.340639e+00 6.863939e+00 84 78 70
-2.593112e+00 1.278048e+00 1.081328e+01 53 39 27
-2.593112e+00 1.278048e+00 1.081328e+01 53 39 27
-1.817294e+00 1.360925e+00 6.772213e+00 89 85 85
-2.555484e+00 1.291317e+00 1.074957e+01 72 56 42
-2.822426e+00 1.267142e+00 1.076770e+01 107 92 70
-5.352335e+00 9.219482e-01 9.497305e+00 148 147 129
-2.875081e+00 1.274476e+00 1.076621e+01 52 45 37
-2.875081e+00 1.274476e+00 1.076621e+01 52 45 37
-2.901947e+00 1.276824e+00 1.071283e+01 54 51 40
-1.658150e+00 1.496447e+00 6.207475e+00 140 138 141
-2.698255e+00 1.343875e+00 1.088059e+01 60 51 42
-2.823028e+00 1.330053e+00 1.077669e+01 61 53 46
-4.419502e+00 1.162661e+00 8.264980e+00 168 164 155
-2.859832e+00 1.342354e+00 1.078794e+01 47 42 37
-2.859832e+00 1.342354e+00 1.078794e+01 47 42 37
-2.889373e+00 1.344902e+00 1.073889e+01 53 48 44
-2.827381e+00 1.406426e+00 1.082859e+01 60 48 37
-2.835366e+00 1.405348e+00 1.080398e+01 60 48 37
-2.862532e+00 1.413523e+00 1.080877e+01 56 47 38
-2.863431e+00 1.413195e+00 1.080519e+01 56 47 38
-5.211857e+00 1.218044e+00 8.475952e+00 104 107 35
-6.160494e+00 1.088834e+00 9.021700e+00 99 88 70
-2.888353e+00 1.464574e+00 1.081146e+01 100 88 73
-2.873382e+00 1.500408e+00 1.081127e+01 102 91 74
-5.830968e+00 1.272258e+00 8.254840e+00 104 93 68
-2.740010e+00 1.519202e+00 1.090534e+01 102 92 68
-2.716631e+00 1.571740e+00 1.093618e+01 70 60 50
-2.724784e+00 1.591009e+00 1.093740e+01 102 88 72
-2.821862e+00 1.584469e+00 1.087868e+01 101 90 70
-2.821862e+00 1.584469e+00 1.087868e+01 101 90 70
-2.441808e+00 1.703432e+00 1.060680e+01 48 45 36
-2.433063e+00 1.700721e+00 1.066125e+01 48 45 36
-2.385013e+00 1.768775e+00 1.048882e+01 58 58 48
-2.294456e+00 1.824502e+00 1.027808e+01 50 47 40
-2.294456e+00 1.824502e+00 1.027808e+01 50 47 40
-2.807145e+00 1.699853e+00 1.091618e+01 57 52 40
-2.807145e+00 1.699853e+00 1.091618e+01 57 52 40
-2.382819e+00 1.809696e+00 1.049956e+01 56 53 43
-2.814544e+00 1.729331e+00 1.091390e+01 52 50 37
-2.852001e+00 1.791846e+00 1.090351e+01 54 48 36
-2.852001e+00 1.791846e+00 1.090351e+01 54 48 36
-2.227832e+00 1.967571e+00 1.018507e+01 51 48 41
-2.627803e+00 1.816278e+00 1.103303e+01 59 56 47
-2.655009e+00 1.857616e+00 1.104510e+01 16 16 14
-2.225970e+00 2.042077e+00 1.019071e+01 58 55 48
-2.747936e+00 1.858229e+00 1.099765e+01 23 19 16
-2.504504e+00 1.911565e+00 1.086882e+01 62 60 48
-2.504504e+00 1.911565e+00 1.086882e+01 62 60 48
-2.844160e+00 1.887502e+00 1.093911e+01 22 23 16
-2.727858e+00 1.910398e+00 1.102251e+01 19 17 14
-2.584513e+00 1.953013e+00 1.106198e+01 116 99 75
-8.940628e-01 8.929042e-02 1.117770e+01 69 62 88
-9.178118e-01 9.653125e-02 1.115654e+01 135 139 115
-2.113788e+00 6.608234e-02 1.161161e+01 89 78 91
-2.329434e+00 5.506723e-02 1.166150e+01 68 53 75
-2.329434e+00 5.506723e-02 1.166150e+01 68 53 75
-5.619019e-01 1.339823e-01 1.098085e+01 151 152 154
-5.262011e-01 1.078756e-01 1.088312e+01 90 93 111
-2.332644e+00 6.823357e-02 1.159501e+01 134 132 124
-1.359330e+00 1.024155e-01 1.122921e+01 77 71 102
-2.271829e+00 1.044031e-01 1.147809e+01 75 65 75
-1.839223e+00 1.264342e-01 1.123495e+01 162 158 158
-2.237404e+00 1.176770e-01 1.139880e+01 77 64 84
-4.255300e-01 1.884813e-01 1.068956e+01 89 91 136
-4.255300e-01 1.884813e-01 1.068956e+01 89 91 136
-1.979250e+00 1.352308e-01 1.128882e+01 86 78 97
-1.979250e+00 1.352308e-01 1.128882e+01 86 78 97
-1.769416e+00 1.626865e-01 1.105330e+01 144 151 128
-1.543471e+00 1.760909e-01 1.092947e+01 60 56 70
-3.031405e+00 1.610476e-01 1.160479e+01 81 73 87
-1.433108e+00 1.916181e-01 1.084538e+01 73 66 100
-2.096489e-02 2.476491e-01 1.019789e+01 111 113 141
-1.568359e+00 1.919715e-01 1.085060e+01 50 51 71
-1.558456e+00 1.926789e-01 1.084263e+01 136 138 126
-5.352301e-02 2.541680e-01 1.018205e+01 102 109 125
-1.758921e+00 2.031695e-01 1.086694e+01 70 67 96
-1.249847e-01 2.676828e-01 1.017100e+01 98 104 124
-1.784333e+00 2.090260e-01 1.085247e+01 145 146 138
-1.617803e+00 2.270038e-01 1.073853e+01 153 151 151
-9.857854e-02 2.903917e-01 1.008774e+01 159 164 167
-1.628736e+00 2.257034e-01 1.073533e+01 52 49 60
-1.969887e-01 2.907211e-01 1.012664e+01 96 101 127
-3.044309e+00 1.883426e-01 1.138401e+01 146 141 140
-1.019834e+00 2.653725e-01 1.045858e+01 162 165 162
-1.009422e+00 2.692166e-01 1.044258e+01 80 80 102
-1.559558e-01 3.053365e-01 1.007494e+01 97 103 125
-1.882113e+00 2.272127e-01 1.079792e+01 143 148 130
-1.310791e+00 2.569411e-01 1.053712e+01 147 152 140
-2.032997e-01 3.154193e-01 1.005318e+01 98 104 127
-1.935253e+00 2.399828e-01 1.080227e+01 68 62 84
-1.117937e+00 2.751799e-01 1.042989e+01 74 74 100
-2.491858e-01 3.384204e-01 1.011556e+01 99 103 116
-1.892761e+00 2.410385e-01 1.074106e+01 120 119 136
-1.565058e+00 2.597585e-01 1.058464e+01 71 64 82
-7.311948e-01 3.162864e-01 1.020282e+01 158 157 158
-1.638705e+00 2.878057e-01 1.047869e+01 56 53 61
1.036974e-02 3.866263e-01 9.783946e+00 152 151 156
-1.243137e+00 3.260029e-01 1.028496e+01 80 88 119
1.279230e-01 4.228704e-01 9.640991e+00 139 141 149
-1.627556e+00 3.250440e-01 1.033637e+01 51 46 68
-1.665844e+00 3.226164e-01 1.034812e+01 107 105 122
1.818153e-02 4.276324e-01 9.661696e+00 138 145 130
-1.300718e+00 3.481592e-01 1.016662e+01 76 75 105
-1.303372e+00 3.546277e-01 1.019168e+01 76 75 105
-1.641336e+00 3.427303e-01 1.036673e+01 149 150 139
-1.338544e+00 3.562224e-01 1.014550e+01 73 74 97
-1.271941e+00 3.735107e-01 1.013364e+01 71 75 109
-1.287009e+00 3.758613e-01 1.014138e+01 168 166 174
-1.515717e+00 3.656351e-01 1.018199e+01 60 63 90
-1.411787e+00 3.907335e-01 1.012767e+01 150 157 141
-1.409428e+00 3.969452e-01 1.010337e+01 78 79 104
-1.621655e+00 3.961578e-01 1.016234e+01 65 62 91
-4.198753e-01 5.216678e-01 9.508349e+00 117 121 130
-4.063130e-01 5.119518e-01 9.460488e+00 117 121 130
-4.803635e-01 5.200465e-01 9.452863e+00 97 104 125
-1.388427e+00 4.589531e-01 9.862912e+00 161 160 159
-5.487870e-01 5.251849e-01 9.512248e+00 135 138 147
-5.487870e-01 5.251849e-01 9.512248e+00 135 138 147
-1.144856e+00 4.837218e-01 9.762659e+00 170 169 176
-1.336666e+00 4.691059e-01 9.841029e+00 81 87 109
-7.019684e-01 5.157179e-01 9.538280e+00 87 100 116
-4.295754e+00 3.150732e-01 1.134996e+01 101 104 85
-1.451456e+00 4.762458e-01 9.845765e+00 164 163 163
-1.450475e+00 4.732522e-01 9.835563e+00 164 163 163
-1.225182e+00 5.243153e-01 9.653007e+00 135 140 143
-4.030937e+00 3.533087e-01 1.103217e+01 67 61 51
-2.554848e+00 5.007242e-01 1.036331e+01 27 27 22
-2.565342e+00 5.065419e-01 1.037826e+01 58 56 48
-2.509329e+00 5.230809e-01 1.027393e+01 32 27 26
3.183705e-03 6.896377e-01 8.923883e+00 50 60 85
1.709834e-02 6.831155e-01 8.893342e+00 50 60 85
-1.247794e+00 5.550235e-01 9.297250e+00 113 97 114
-2.501080e+00 5.271506e-01 1.024969e+01 33 29 24
-2.474620e+00 5.679006e-01 1.020515e+01 32 30 25
-2.446379e+00 5.815890e-01 1.015663e+01 35 32 28
-2.391009e+00 6.041797e-01 9.989464e+00 40 33 35
-2.240207e-01 7.543300e-01 8.730072e+00 112 116 117
-2.266257e+00 5.923414e-01 9.731348e+00 97 83 66
-1.763921e-01 7.626247e-01 8.694885e+00 57 70 79
-2.553753e-01 7.463831e-01 8.690916e+00 124 123 129
-1.894625e-01 7.879938e-01 8.484868e+00 66 80 100
-4.488754e+00 5.230528e-01 1.063782e+01 85 68 85
-4.466993e+00 5.450943e-01 1.075113e+01 133 134 110
-1.716716e+00 7.787466e-01 8.897548e+00 107 124 150
2.757820e-01 9.947673e-01 7.863994e+00 113 109 103
2.757820e-01 9.947673e-01 7.863994e+00 113 109 103
-2.630424e+00 8.679370e-01 1.066779e+01 58 46 33
-2.630424e+00 8.679370e-01 1.066779e+01 58 46 33
-2.526024e+00 8.744800e-01 1.043502e+01 60 49 38
-4.668128e+00 5.826391e-01 1.055078e+01 77 64 83
2.814545e-01 1.049783e+00 7.672321e+00 103 100 92
2.133989e-01 1.063146e+00 7.630906e+00 115 110 114
2.133989e-01 1.063146e+00 7.630906e+00 115 110 114
4.107140e-01 1.092533e+00 7.505869e+00 156 145 151
1.512987e-01 1.077820e+00 7.575198e+00 115 109 108
-2.429566e+00 9.210106e-01 1.017166e+01 72 59 50
-4.882076e+00 6.063729e-01 1.045551e+01 140 136 107
-4.796900e+00 6.331682e-01 1.053524e+01 142 135 111
-4.796900e+00 6.331682e-01 1.053524e+01 142 135 111
5.351462e-02 1.100760e+00 7.476349e+00 117 109 110
2.311781e-02 1.104828e+00 7.421364e+00 123 120 131
7.336991e-03 1.109747e+00 7.466123e+00 123 120 131
-2.825615e+00 9.466978e-01 1.067816e+01 107 98 72
-2.837184e+00 9.492748e-01 1.067427e+01 102 89 74
-4.217205e+00 6.895722e-01 9.905336e+00 152 145 128
-2.805796e+00 9.776643e-01 1.072860e+01 71 62 52
-2.407398e+00 1.011515e+00 1.031587e+01 59 50 40
-2.931179e+00 9.763694e-01 1.064496e+01 109 93 79
-2.312299e+00 1.021468e+00 9.926690e+00 54 45 32
-2.921678e+00 9.829319e-01 1.065231e+01 84 70 51
-3.876431e+00 7.718838e-01 9.481367e+00 84 83 89
-3.872159e+00 7.727563e-01 9.485082e+00 84 83 89
-2.302897e+00 1.031812e+00 9.901001e+00 63 51 37
-3.936077e+00 8.203954e-01 9.323937e+00 116 119 122
-4.902997e+00 7.380874e-01 1.002944e+01 149 143 128
-3.973340e+00 8.364340e-01 9.261455e+00 173 172 168
-3.925836e+00 8.542600e-01 9.157055e+00 100 111 122
-2.698365e+00 1.111065e+00 1.081789e+01 28 19 20
-4.034684e+00 8.541777e-01 9.314878e+00 112 110 122
-4.050688e+00 8.491269e-01 9.277950e+00 112 110 122
-4.063718e+00 8.509177e-01 9.350547e+00 169 170 154
-4.111829e+00 8.507008e-01 9.353257e+00 114 113 118
-1.696353e+00 1.131172e+00 7.696637e+00 189 189 197
-4.554022e+00 8.045226e-01 9.583388e+00 79 68 68
-4.186911e+00 8.510782e-01 9.308594e+00 169 165 156
-3.983537e+00 8.810436e-01 9.066091e+00 177 175 176
-4.192180e+00 8.689530e-01 9.313535e+00 117 116 118
-1.739685e+00 1.153029e+00 7.656998e+00 116 134 152
-3.844976e+00 9.047625e-01 8.911329e+00 124 131 160
-3.518171e+00 9.665177e-01 8.792150e+00 118 136 159
-4.149217e+00 9.027558e-01 9.201852e+00 119 118 123
-2.860006e+00 1.136324e+00 1.074251e+01 103 90 63
-1.935770e+00 1.194419e+00 7.581011e+00 143 156 183
-3.720849e+00 9.793677e-01 8.502073e+00 126 139 169
-2.916091e+00 1.155584e+00 1.068269e+01 33 27 28
-2.861107e+00 1.166055e+00 1.073018e+01 58 49 44
-4.242818e+00 9.451634e-01 8.964738e+00 171 169 162
-3.777181e+00 1.006692e+00 8.417522e+00 128 139 163
-3.764006e+00 1.018606e+00 8.629826e+00 127 134 162
-2.897531e+00 1.182664e+00 1.070154e+01 106 94 72
-3.782991e+00 1.088007e+00 8.493210e+00 130 136 162
-4.116639e+00 1.098137e+00 8.309475e+00 136 142 166
-5.041759e+00 1.017388e+00 9.066369e+00 158 150 139
-1.657050e+00 1.537513e+00 6.207662e+00 130 129 141
-1.657050e+00 1.537513e+00 6.207662e+00 130 129 141
-4.743434e+00 1.184213e+00 8.537745e+00 102 95 70
-2.681305e+00 1.406285e+00 1.091294e+01 46 37 28
-4.874654e+00 1.284184e+00 8.114172e+00 118 104 79
-6.053025e+00 1.132226e+00 8.855259e+00 88 80 69
-2.584785e+00 1.525143e+00 1.084719e+01 54 56 45
-5.874201e+00 1.248662e+00 8.353464e+00 102 94 74
-6.131556e+00 1.205641e+00 8.640393e+00 99 91 70
-2.750524e+00 1.513561e+00 1.090207e+01 43 37 33
-2.755182e+00 1.525225e+00 1.090162e+01 88 75 58
-6.219578e+00 1.252435e+00 8.360926e+00 104 92 75
-2.802188e+00 1.567877e+00 1.088550e+01 65 57 46
-2.881648e+00 1.563016e+00 1.081298e+01 23 22 21
-2.875366e+00 1.562517e+00 1.083536e+01 23 22 21
-2.659337e+00 1.582192e+00 1.097494e+01 33 24 21
-2.738294e+00 1.607565e+00 1.090652e+01 29 22 19
-2.736504e+00 1.619404e+00 1.091258e+01 36 31 24
-2.766891e+00 1.730489e+00 1.094912e+01 20 21 18
-2.747979e+00 1.768264e+00 1.097250e+01 60 58 46
-2.502219e+00 1.864090e+00 1.089401e+01 52 53 45
-2.667810e+00 1.842383e+00 1.103871e+01 23 19 16
-2.730941e+00 1.846111e+00 1.100360e+01 25 22 16
-2.756558e+00 1.844821e+00 1.098796e+01 100 97 83
-2.756257e+00 1.844887e+00 1.098775e+01 100 97 83
-2.655983e+00 1.857156e+00 1.104767e+01 16 16 14
-2.825657e+00 1.874409e+00 1.095022e+01 23 23 18
-2.803712e+00 1.878362e+00 1.096813e+01 25 21 10
-2.803712e+00 1.878362e+00 1.096813e+01 25 21 10
-2.732354e+00 1.919620e+00 1.100794e+01 21 18 12
-2.738560e+00 1.925714e+00 1.101757e+01 95 88 78
-2.773696e+00 1.934809e+00 1.099972e+01 90 82 72
-2.150394e+00 5.301100e-02 1.159807e+01 96 93 104
-8.815902e-01 6.999803e-02 1.105061e+01 137 141 112
-2.351322e+00 5.990294e-02 1.165133e+01 77 68 85
-1.405030e+00 1.089624e-01 1.122669e+01 154 151 162
-1.047196e+00 1.282334e-01 1.103825e+01 86 85 104
-1.047196e+00 1.282334e-01 1.103825e+01 86 85 104
-6.479484e-01 1.575626e-01 1.085260e+01 93 89 113
-1.757209e+00 1.541295e-01 1.106673e+01 142 143 134
-1.843139e+00 1.829179e-01 1.100149e+01 154 153 163
-1.448215e+00 1.906740e-01 1.080862e+01 77 75 91
-1.448985e+00 1.938341e-01 1.081925e+01 77 75 91
-1.501655e+00 2.113260e-01 1.080385e+01 157 157 154
-1.194673e-01 2.748169e-01 1.015974e+01 108 113 141
-1.652925e+00 2.195345e-01 1.076843e+01 136 136 131
-1.706340e+00 2.270091e-01 1.074424e+01 68 67 83
-1.353400e+00 2.491272e-01 1.058561e+01 85 80 102
-8.355814e-01 2.852019e-01 1.035666e+01 101 98 121
-3.104440e-01 3.285006e-01 1.017936e+01 97 101 124
-3.173267e-01 3.231307e-01 1.015402e+01 95 97 118
-2.559163e-01 3.345708e-01 1.009136e+01 84 89 113
-1.600039e+00 2.876012e-01 1.049275e+01 158 156 156
-1.715804e+00 3.056457e-01 1.046346e+01 154 158 157
-1.715272e+00 3.077914e-01 1.047056e+01 154 158 157
-1.724213e+00 3.275464e-01 1.034869e+01 107 106 114
-1.394103e+00 3.532366e-01 1.017684e+01 91 89 113
-1.450872e+00 3.860891e-01 1.006838e+01 146 147 147
-1.379823e+00 4.430079e-01 9.959794e+00 158 167 150
-1.379823e+00 4.430079e-01 9.959794e+00 158 167 150
-1.189939e+00 4.553723e-01 9.652714e+00 164 168 166
-1.372104e+00 4.738382e-01 9.837405e+00 170 170 177
-3.347197e-01 5.586164e-01 9.281388e+00 111 118 123
-4.009099e+00 3.627375e-01 1.109120e+01 71 67 51
-4.009099e+00 3.627375e-01 1.109120e+01 71 67 51
-1.108937e+00 5.266251e-01 9.458655e+00 161 163 166
-2.865052e+00 4.641701e-01 1.054226e+01 82 77 56
-3.973789e+00 3.963729e-01 1.110303e+01 81 82 59
-1.351344e+00 6.332992e-01 9.947505e+00 106 105 124
-2.523855e+00 5.114635e-01 1.026006e+01 30 29 26
-1.188914e+00 6.013387e-01 9.387994e+00 98 115 142
-2.923361e+00 5.252182e-01 1.053434e+01 58 48 40
-6.044815e-01 6.498758e-01 9.061001e+00 111 129 155
-6.485444e-01 6.654721e-01 9.063813e+00 171 181 212
-2.457724e+00 5.775417e-01 1.018403e+01 35 29 24
-2.778171e+00 6.243987e-01 1.064091e+01 71 68 50
-4.332996e+00 4.443590e-01 1.091746e+01 96 81 86
-4.038668e+00 5.187565e-01 1.046727e+01 105 95 104
-3.997040e+00 5.959430e-01 1.031031e+01 88 82 79
-4.050885e+00 5.817036e-01 1.024887e+01 91 91 82
-4.056435e+00 5.802757e-01 1.023983e+01 91 91 82
-2.536982e+00 8.316398e-01 1.040409e+01 62 53 46
-4.011045e+00 6.121316e-01 1.029220e+01 148 142 126
-1.739896e+00 7.968457e-01 8.740850e+00 104 120 143
2.308382e-01 1.009320e+00 7.804712e+00 117 116 112
-4.609900e+00 5.812603e-01 1.067156e+01 64 55 56
-4.109671e+00 6.064475e-01 1.015607e+01 90 75 92
-4.105324e+00 6.065440e-01 1.016718e+01 90 75 92
-4.095166e+00 6.201928e-01 1.026390e+01 132 130 109
-4.095166e+00 6.201928e-01 1.026390e+01 132 130 109
-4.592429e+00 5.855545e-01 1.064385e+01 88 77 88
-4.165523e+00 6.105051e-01 1.017129e+01 147 143 128
-4.141466e+00 6.310234e-01 1.022695e+01 74 67 72
-4.175751e+00 6.182620e-01 1.016468e+01 74 67 72
-4.184052e+00 6.190028e-01 1.017183e+01 126 126 113
-4.645880e+00 5.965389e-01 1.062192e+01 62 58 46
4.312225e-01 1.104157e+00 7.410141e+00 127 121 123
4.312225e-01 1.104157e+00 7.410141e+00 127 121 123
-4.750247e+00 6.189662e-01 1.055974e+01 84 68 88
-4.759732e+00 6.265787e-01 1.054739e+01 147 140 136
-4.768169e+00 6.296323e-01 1.054821e+01 137 127 126
-4.190891e+00 6.781541e-01 1.004158e+01 71 63 77
-4.900100e+00 6.091548e-01 1.042602e+01 83 69 66
-4.892464e+00 6.144372e-01 1.043705e+01 83 69 66
-4.040332e+00 6.960307e-01 9.826818e+00 148 145 129
-4.407083e+00 6.667815e-01 1.004830e+01 133 136 114
-4.346312e+00 6.881391e-01 1.015323e+01 133 136 114
-4.027833e+00 7.129131e-01 9.819146e+00 94 87 99
-2.851940e+00 9.526081e-01 1.066827e+01 102 94 69
-4.185932e+00 7.086797e-01 9.934636e+00 75 70 68
-2.347515e+00 1.003539e+00 1.002795e+01 53 44 29
-2.625105e+00 1.034110e+00 1.074662e+01 58 42 26
-2.623211e+00 1.034916e+00 1.075609e+01 58 42 26
-4.199611e+00 7.475374e-01 9.777608e+00 76 74 64
-4.199611e+00 7.475374e-01 9.777608e+00 76 74 64
-4.253198e+00 7.436577e-01 9.818529e+00 103 91 99
-4.575984e+00 7.150366e-01 9.990059e+00 125 121 103
-4.550047e+00 7.286361e-01 1.006758e+01 67 62 59
-4.550047e+00 7.286361e-01 1.006758e+01 67 62 59
-4.515002e+00 7.325193e-01 1.002961e+01 84 75 80
-3.597055e+00 8.368893e-01 8.963805e+00 131 143 167
-2.004300e+00 1.027575e+00 8.108532e+00 158 169 191
-2.699389e+00 1.085237e+00 1.077604e+01 85 80 60
-2.474172e+00 1.105542e+00 1.040980e+01 67 51 33
-2.812155e+00 1.075705e+00 1.071971e+01 75 63 47
-3.898945e+00 8.506327e-01 9.144338e+00 117 122 135
-1.638925e+00 1.117884e+00 7.743288e+00 123 134 152
-4.459582e+00 8.034491e-01 9.575768e+00 139 135 122
-3.968462e+00 8.696772e-01 9.102337e+00 121 117 139
-3.968462e+00 8.696772e-01 9.102337e+00 121 117 139
-2.069534e+00 1.099306e+00 7.790672e+00 131 141 154
-2.054103e+00 1.110458e+00 7.738835e+00 141 149 164
-4.047681e+00 8.844136e-01 9.113592e+00 94 96 100
-3.980032e+00 8.983731e-01 9.121833e+00 172 172 174
-3.937147e+00 9.336743e-01 8.866641e+00 191 197 215
-3.990566e+00 9.313668e-01 8.904149e+00 122 130 152
-2.682929e+00 1.187864e+00 1.085365e+01 94 87 69
-5.342476e+00 8.072516e-01 9.895053e+00 110 98 96
-3.760633e+00 1.004449e+00 8.409560e+00 197 199 214
-3.731433e+00 1.021668e+00 8.620180e+00 181 187 200
-4.251056e+00 9.607278e-01 9.004512e+00 169 166 159
-3.834535e+00 1.073337e+00 8.261926e+00 189 194 208
-4.005955e+00 1.101285e+00 8.187537e+00 184 186 203
-4.059436e+00 1.105837e+00 8.202671e+00 151 157 173
-4.059436e+00 1.105837e+00 8.202671e+00 151 157 173
-4.224388e+00 1.111011e+00 8.338181e+00 144 145 154
-4.146651e+00 1.128866e+00 8.477778e+00 139 146 158
-5.594367e+00 9.406118e-01 9.515247e+00 96 90 44
-4.360809e+00 1.127259e+00 8.179693e+00 176 173 168
-2.306282e+00 1.388760e+00 1.007748e+01 73 56 36
-4.415375e+00 1.145973e+00 8.290097e+00 124 119 101
-4.415375e+00 1.145973e+00 8.290097e+00 124 119 101
-2.434564e+00 1.396663e+00 1.042310e+01 65 49 33
-4.501625e+00 1.170812e+00 8.187522e+00 97 84 52
-4.834018e+00 1.138835e+00 8.547984e+00 152 152 135
-4.700273e+00 1.213137e+00 8.136408e+00 106 91 47
-2.680504e+00 1.424635e+00 1.088728e+01 54 41 38
-2.756592e+00 1.458107e+00 1.085024e+01 100 90 71
-5.955002e+00 1.184183e+00 8.630050e+00 93 86 74
-6.009606e+00 1.189073e+00 8.695409e+00 97 89 68
-5.833735e+00 1.259469e+00 8.327090e+00 97 92 72
-6.226601e+00 1.186448e+00 8.672107e+00 57 51 42
-6.170103e+00 1.228664e+00 8.560328e+00 95 87 62
-2.337489e+00 1.617287e+00 1.038366e+01 73 66 54
-2.346951e+00 1.619340e+00 1.030919e+01 73 66 54
-2.788725e+00 1.530990e+00 1.086851e+01 93 84 67
-2.826834e+00 1.542599e+00 1.086537e+01 95 83 68
-6.073952e+00 1.314322e+00 8.239393e+00 94 88 62
-2.242296e+00 1.686158e+00 1.004697e+01 64 59 54
-2.232139e+00 1.681877e+00 1.015208e+01 64 59 54
-2.841930e+00 1.566493e+00 1.086655e+01 88 79 61
-2.693513e+00 1.588111e+00 1.094354e+01 40 29 28
-2.882841e+00 1.573630e+00 1.083420e+01 98 90 71
-2.539225e+00 1.622280e+00 1.080409e+01 54 52 42
-2.346784e+00 1.754917e+00 1.035913e+01 54 54 44
-2.704869e+00 1.729446e+00 1.098824e+01 25 23 11
-2.704747e+00 1.729426e+00 1.098741e+01 25 23 11
-2.725073e+00 1.851877e+00 1.100919e+01 89 86 76
-2.725007e+00 1.851985e+00 1.100947e+01 89 86 76
-2.656148e+00 1.874258e+00 1.105444e+01 22 20 16
-2.586523e+00 1.941871e+00 1.109931e+01 51 42 25
-2.823274e+00 1.952512e+00 1.097418e+01 83 80 74
-2.572681e+00 2.002725e+00 1.096617e+01 88 103 129
-2.628013e+00 1.988094e+00 1.104531e+01 123 131 149
-3.620954e+00 2.902306e-01 1.111167e+01 74 33 25
-1.304055e+00 4.945168e-01 9.811912e+00 176 174 177
-1.641223e+00 1.867749e-01 1.089184e+01 139 138 144
-1.120010e+00 2.522507e-01 1.053561e+01 161 157 156
-2.841072e+00 1.988035e+00 1.094903e+01 13 13 11
-4.116475e-01 2.410396e-01 1.040518e+01 168 167 172
-2.665807e+00 1.537580e+00 1.095531e+01 99 82 62
-5.415819e-01 1.630655e-01 1.068657e+01 166 165 174
-3.650808e+00 2.802688e-01 1.117390e+01 74 34 26
-3.650808e+00 2.802688e-01 1.117390e+01 74 34 26
-1.631703e+00 3.144027e-01 1.039652e+01 46 44 60
-9.799591e-01 5.969040e-01 9.396205e+00 147 144 146
-4.387319e+00 7.882993e-01 9.658012e+00 119 118 123
-1.324845e+00 5.796681e-02 1.130638e+01 150 150 137
-5.630178e-01 1.110996e-01 1.090085e+01 161 162 160
-1.131218e+00 1.343559e-01 1.095959e+01 159 158 154
-1.844706e+00 2.718842e-01 1.062517e+01 89 88 100
7.735248e-02 6.872686e-01 8.893041e+00 122 126 134
-2.783616e+00 1.323275e+00 1.083088e+01 73 60 51
-2.828443e+00 1.503646e+00 1.084452e+01 50 43 39
-2.826834e+00 1.504267e+00 1.085260e+01 50 43 39
-1.735104e+00 1.590428e+00 5.918003e+00 132 130 144
-2.681128e+00 1.721784e+00 1.099788e+01 45 42 33
-2.776564e+00 1.771476e+00 1.094750e+01 47 44 31
-3.031508e+00 1.236655e-01 1.155802e+01 67 56 63
-8.399035e-01 5.429341e-02 1.118524e+01 73 74 102
-1.621094e+00 1.756462e-01 1.093683e+01 57 62 88
-8.730814e-01 1.723504e-01 1.070632e+01 162 162 166
-1.837748e+00 2.243734e-01 1.078052e+01 51 49 66
-5.288524e-01 2.000433e-01 1.055788e+01 166 163 178
-7.888421e-01 2.109094e-01 1.059566e+01 92 94 131
-1.157472e+00 2.256836e-01 1.061314e+01 152 152 148
-1.860774e+00 2.632532e-01 1.065142e+01 93 91 105
-1.320022e+00 3.721695e-01 1.013207e+01 85 88 121
-3.002740e+00 4.577505e-01 1.046854e+01 180 176 165
-5.517809e-01 5.101822e-01 9.498096e+00 74 76 80
-7.933110e-01 5.314745e-01 9.509172e+00 116 115 121
-6.674254e-01 6.019574e-01 9.315661e+00 126 125 115
-1.320592e-02 6.573635e-01 9.044015e+00 90 98 112
-1.885654e+00 7.549723e-01 8.976508e+00 76 96 120
-2.763112e+00 9.626720e-01 1.072679e+01 72 59 52
-2.797611e+00 1.579440e+00 1.089014e+01 98 83 60
-2.801052e+00 1.577503e+00 1.087547e+01 98 83 60
-2.802539e+00 1.778479e+00 1.093404e+01 57 53 44
-1.324782e+00 7.319092e-02 1.125602e+01 145 140 130
-5.277034e-01 1.642333e-01 1.067766e+01 159 158 170
-1.963464e+00 2.025648e-01 1.091449e+01 65 60 83
-1.013185e+00 3.045002e-01 1.030412e+01 156 154 160
-9.390037e-01 5.032731e-01 9.638455e+00 72 86 105
-4.490123e-01 6.352910e-01 9.128848e+00 157 154 151
-4.088609e+00 7.315398e-01 9.729395e+00 159 157 140
-4.095664e+00 8.397721e-01 9.340061e+00 123 126 130
-5.249193e+00 9.226892e-01 9.507064e+00 57 70 22
-4.063171e+00 9.655970e-01 8.926815e+00 116 124 142
-7.725519e-01 1.124348e+00 7.603732e+00 128 138 141
-2.848468e+00 1.352881e+00 1.080242e+01 101 85 62
-2.700900e+00 1.422828e+00 1.089725e+01 95 85 58
-5.235469e-02 2.337143e+00 3.173752e+00 84 77 67
-2.653564e+00 1.825539e+00 1.103548e+01 22 18 16
-8.262558e-01 5.465417e-02 1.117679e+01 128 135 128
-1.441576e+00 8.857846e-02 1.124772e+01 139 149 125
-1.520394e+00 1.172038e-01 1.115062e+01 158 156 158
-1.149636e+00 1.297389e-01 1.096358e+01 139 148 127
-1.713913e+00 2.315955e-01 1.073479e+01 144 143 126
-1.429346e+00 3.923445e-01 1.009125e+01 161 164 173
-1.465546e+00 4.007479e-01 1.007694e+01 161 165 170
-7.165120e-01 5.447268e-01 9.450222e+00 66 72 84
-7.834568e-01 6.038129e-01 9.301601e+00 127 134 144
-8.438731e-01 6.137207e-01 9.304328e+00 134 138 150
-5.625697e-01 6.338381e-01 9.147362e+00 70 77 87
-1.632013e+00 7.757853e-01 8.873511e+00 123 129 146
-2.797952e+00 9.640150e-01 1.071440e+01 97 85 67
1.061024e-01 1.154494e+00 7.395427e+00 148 133 137
-1.712746e+00 1.148049e+00 7.564143e+00 165 170 176
-2.670903e+00 1.425524e+00 1.092588e+01 52 39 30
-4.957101e+00 1.345625e+00 7.966775e+00 133 127 120
-2.029805e+00 5.538989e+00 -7.055138e+00 70 74 75
-1.022014e+01 5.720538e+00 -5.362154e+00 87 77 62
-5.164446e+00 1.171805e+00 8.569821e+00 108 104 55
-2.844672e+00 7.353253e-02 1.163828e+01 128 130 98
-2.341791e+00 4.121579e-02 1.165022e+01 123 122 90
-4.074905e+00 7.020110e-01 9.781033e+00 101 98 95
-6.382331e-01 3.941539e-01 1.004053e+01 87 100 116
-9.504112e-01 3.609042e-01 1.010062e+01 69 80 112
-1.821228e+00 7.521091e-01 8.981883e+00 93 113 145
-1.187888e+00 9.275006e-01 8.196953e+00 86 102 127
-2.301725e+00 3.373635e-02 1.168469e+01 145 142 123
-3.156871e+00 1.002107e-02 1.194653e+01 140 139 122
-2.342055e+00 5.330604e-02 1.164537e+01 33 28 34
-2.670275e+00 4.668988e-02 1.173474e+01 147 143 119
-2.670275e+00 4.668988e-02 1.173474e+01 147 143 119
-1.168681e+00 3.173924e-01 1.032016e+01 167 165 171
-3.590885e-01 5.609325e-01 9.360756e+00 112 113 124
-6.234625e-01 5.593302e-01 9.264692e+00 77 92 120
-4.989118e+00 1.286609e+00 7.987446e+00 151 136 102
-2.366070e+00 3.894586e-02 1.169808e+01 35 30 25
-2.317905e+00 5.728020e-02 1.165611e+01 149 146 133
-6.286652e-01 1.837017e-01 1.058409e+01 54 56 86
-9.657542e-01 2.964379e-01 1.035876e+01 165 164 169
-3.217144e-01 5.392933e-01 9.420005e+00 90 99 107
-5.863085e-01 6.570363e-01 9.095809e+00 180 180 188
-2.015630e+00 7.788032e-01 8.833126e+00 116 123 130
-2.021717e+00 7.565920e-01 8.659727e+00 116 123 130
-1.094726e+00 9.075643e-01 8.279847e+00 103 119 151
-1.253838e+00 1.439706e+00 6.439957e+00 180 179 186
-4.504979e+00 1.220971e+00 8.024790e+00 120 104 82
-5.410395e+00 1.105787e+00 8.926756e+00 100 102 37
-4.757462e+00 1.278183e+00 7.929019e+00 116 104 72
-2.341137e+00 6.339038e-02 1.159832e+01 62 50 74
-1.780764e+00 1.511027e-01 1.108088e+01 156 156 143
-1.991544e+00 1.918508e-01 1.100027e+01 45 45 67
-1.282331e+00 3.286641e-01 1.028652e+01 63 64 100
-1.311128e+00 3.675095e-01 1.017126e+01 165 165 166
-5.057493e-01 6.080480e-01 9.212297e+00 147 145 149
-2.818086e+00 6.247441e-01 1.058903e+01 69 64 44
-1.140365e+00 9.552330e-01 8.127910e+00 187 182 189
-3.933054e+00 6.917297e-01 9.812552e+00 165 160 142
-4.181771e+00 7.081616e-01 9.823051e+00 121 117 117
-9.916540e-01 1.043559e+00 7.823826e+00 134 162 192
-1.021472e+00 1.050699e+00 7.841591e+00 196 198 215
-4.487539e+00 1.195706e+00 8.113769e+00 161 159 143
-4.639274e+00 1.231081e+00 8.064358e+00 162 157 144
-4.721599e+00 1.243720e+00 8.028890e+00 166 156 149
-1.799178e+00 1.567749e-01 1.109817e+01 52 49 80
-7.558612e-01 3.145585e-01 1.026897e+01 165 167 165
-7.706680e-01 3.044598e-01 1.022594e+01 164 167 154
-4.975077e-01 5.188449e-01 9.528496e+00 155 155 158
-3.349656e-01 5.620608e-01 9.388881e+00 164 166 162
-7.350904e-01 5.989974e-01 9.326534e+00 138 138 148
-2.690096e+00 1.417233e+00 1.089285e+01 102 91 66
-2.663150e+00 1.526962e+00 1.094655e+01 99 91 72
-5.768430e+00 1.326895e+00 7.996315e+00 110 98 78
-2.817448e+00 1.558602e+00 1.086567e+01 92 81 63
-6.194233e+00 1.352312e+00 8.119310e+00 109 99 76
-2.741423e+00 1.722173e+00 1.095592e+01 21 21 17
-2.739615e+00 1.723019e+00 1.096188e+01 21 21 17
-2.428769e+00 6.551867e-02 1.167599e+01 153 148 143
-5.948972e-01 5.783559e-01 9.310267e+00 153 145 152
-2.543265e+00 5.064765e-01 1.033643e+01 28 25 22
-1.292642e+00 6.889335e-01 9.069625e+00 89 100 122
-1.067154e+00 9.335128e-01 8.256377e+00 133 148 176
-1.216498e+00 9.445009e-01 8.167878e+00 183 183 196
-2.834526e+00 1.345982e+00 1.078881e+01 103 91 70
-4.534721e+00 1.206677e+00 8.092592e+00 164 156 143
-4.564456e+00 1.232936e+00 8.016803e+00 163 157 146
-4.753116e+00 1.257499e+00 7.987981e+00 160 153 125
-4.921788e+00 1.282546e+00 8.015904e+00 118 104 79
-2.149036e+00 5.612440e-02 1.160674e+01 96 93 104
-2.351293e+00 6.011941e-02 1.165076e+01 77 68 85
-1.578979e+00 1.921360e-01 1.085243e+01 152 148 154
-1.623955e+00 2.707686e-01 1.055558e+01 44 42 42
-3.704123e-01 5.746739e-01 9.241968e+00 117 123 137
-1.336850e+00 5.500895e-01 9.547876e+00 173 171 180
-7.659109e-01 5.837659e-01 9.213006e+00 142 147 164
-4.332606e+00 4.450722e-01 1.091647e+01 96 81 86
-9.822881e-01 1.118017e+00 7.606177e+00 163 174 192
-2.144245e+00 1.116252e+00 7.705904e+00 137 143 158
-4.055876e+00 9.515292e-01 8.843786e+00 110 114 139
-4.055876e+00 9.515292e-01 8.843786e+00 110 114 139
-4.406299e+00 1.192132e+00 8.099685e+00 108 96 83
-4.533928e+00 1.206608e+00 8.063253e+00 157 149 131
-4.834715e+00 1.242602e+00 8.082201e+00 106 93 53
-4.975379e+00 1.276111e+00 8.026285e+00 106 101 68
-5.012392e+00 1.286880e+00 8.018557e+00 119 114 78
-2.700856e+00 1.531461e+00 1.092479e+01 106 94 73
-2.768083e+00 1.548269e+00 1.090283e+01 92 79 62
-6.263715e+00 1.373055e+00 8.063926e+00 69 60 45
-2.718208e+00 1.892406e+00 1.102457e+01 92 89 79
-2.742383e+00 1.897119e+00 1.100643e+01 97 95 79
-5.111692e-01 6.293294e-01 9.150571e+00 48 57 62
-1.879670e+00 7.671429e-01 8.895576e+00 149 146 151
-2.298690e+00 4.604112e-02 1.166193e+01 133 132 102
-2.844976e+00 1.266834e+00 1.076744e+01 44 38 35
-2.844976e+00 1.266834e+00 1.076744e+01 44 38 35
-2.873770e+00 1.288411e+00 1.076830e+01 99 86 66
-7.751566e-01 1.751920e-01 1.069638e+01 154 153 149
-1.057117e+00 2.464611e-01 1.059638e+01 159 156 151
-1.169450e+00 2.605475e-01 1.047847e+01 159 155 152
-1.269105e+00 2.803412e-01 1.043959e+01 155 154 150
-5.591346e+00 1.068476e+00 9.185880e+00 156 154 144
-7.440882e-01 2.853253e-01 1.037130e+01 160 159 155
-2.262521e+00 9.180313e-01 9.904708e+00 70 63 50
-1.238193e+00 1.451621e-01 1.095406e+01 89 85 101
-4.595793e+00 5.151873e-01 1.057055e+01 98 99 95
-5.072822e+00 1.056113e+00 8.944347e+00 81 74 17
-8.691398e+00 2.077264e+00 6.329182e+00 81 74 63
-6.559673e-01 2.959733e-01 1.022479e+01 41 48 66
-1.507482e+00 3.914549e-01 1.013858e+01 161 160 156
-1.392932e+00 4.797603e-01 9.833915e+00 171 168 163
-4.186256e+00 5.988575e-01 1.011970e+01 94 88 83
-1.189068e+00 9.363698e-01 8.260348e+00 95 111 137
-4.256770e+00 8.617457e-01 9.255834e+00 108 106 93
-2.757612e+00 1.533252e+00 1.088598e+01 22 23 24
-1.124464e+00 4.014336e-01 9.983720e+00 38 37 45
-7.513985e-01 5.829634e-01 9.415305e+00 67 84 117
-4.289164e+00 6.260030e-01 1.009659e+01 68 67 66
-4.289164e+00 6.260030e-01 1.009659e+01 68 67 66
-3.946766e+00 7.988085e-01 9.370513e+00 176 173 166
-1.065151e+00 1.021475e+00 7.992103e+00 183 184 187
-2.666950e+00 1.538922e+00 1.095591e+01 108 95 76
-1.973408e+00 5.397869e-02 1.155712e+01 28 23 30
-1.973408e+00 5.397869e-02 1.155712e+01 28 23 30
-2.059210e+00 5.759283e-02 1.156750e+01 18 15 22
-2.041271e+00 6.569521e-02 1.151920e+01 25 21 23
-1.394674e+00 7.645389e-02 1.122969e+01 156 158 140
-2.168484e+00 1.009265e-01 1.144087e+01 29 23 25
-1.152241e+00 1.334807e-01 1.095047e+01 36 32 47
-8.509387e-01 1.483938e-01 1.071876e+01 155 152 144
-9.209080e-01 1.781787e-01 1.073505e+01 155 154 145
-1.266815e+00 5.201835e-01 9.689273e+00 171 170 171
-4.219743e+00 6.426189e-01 9.924313e+00 160 155 139
-4.201533e+00 6.504647e-01 9.954726e+00 160 155 139
-4.244132e+00 6.827594e-01 9.965671e+00 159 156 141
-4.055259e+00 6.896089e-01 9.765546e+00 134 134 125
-4.219678e+00 7.218102e-01 9.673809e+00 99 98 95
-4.253519e+00 7.255688e-01 9.722127e+00 161 155 144
-4.907200e+00 1.162739e+00 8.464663e+00 167 165 153
-4.409053e+00 1.185396e+00 8.187703e+00 170 166 161
-4.409053e+00 1.185396e+00 8.187703e+00 170 166 161
-4.869292e+00 1.307065e+00 7.888013e+00 140 127 92
-2.818413e+00 1.922857e+00 1.096660e+01 34 31 19
-2.093617e+00 7.051155e-02 1.151145e+01 154 156 136
-1.751810e+00 -1.406339e+00 8.215449e+00 27 19 34
-1.850827e+00 1.218523e-01 1.124307e+01 37 31 58
-6.283536e-01 1.104752e-01 1.083818e+01 38 32 51
-1.319151e+00 1.211973e-01 1.103585e+01 152 156 140
-1.319151e+00 1.211973e-01 1.103585e+01 152 156 140
-1.690948e+00 1.422665e-01 1.107967e+01 33 30 60
-6.591101e-01 1.826691e-01 1.060670e+01 151 153 141
-3.640830e+00 3.008741e-01 1.113113e+01 92 93 61
-1.244277e+00 3.106918e-01 1.033654e+01 156 155 149
-5.953799e-01 4.970959e-01 9.518283e+00 65 89 124
-3.857841e-01 5.386963e-01 9.360762e+00 153 156 156
-4.114760e+00 5.126708e-01 1.042062e+01 168 166 157
-3.957777e+00 6.625425e-01 9.948792e+00 102 97 94
-9.217808e-01 8.016318e-01 8.672804e+00 184 186 199
-2.706496e+00 9.875415e-01 1.076994e+01 107 96 74
-1.096621e+00 9.146950e-01 8.321108e+00 81 102 126
-2.694859e+00 1.128048e+00 1.081912e+01 107 94 77
-4.252711e+00 9.222385e-01 9.050672e+00 172 171 166
-2.471803e+00 1.333204e+00 1.062835e+01 58 50 36
-4.561977e+00 1.296735e+00 7.755328e+00 133 127 106
-4.619849e+00 1.312178e+00 7.754667e+00 138 132 110
-1.208906e+00 1.460942e+00 6.544126e+00 131 133 145
-2.523247e+00 1.657124e+00 1.084297e+01 46 42 31
-2.524981e+00 1.657700e+00 1.083695e+01 46 42 31
-8.537818e+00 2.202630e+00 6.015179e+00 95 83 69
-2.075856e+00 5.540503e-02 1.157662e+01 144 144 117
-2.057558e+00 7.025495e-02 1.152661e+01 140 144 114
-1.060011e+00 1.058466e-01 1.101834e+01 150 156 127
-1.319300e+00 1.166787e-01 1.107990e+01 42 34 54
-1.319300e+00 1.166787e-01 1.107990e+01 42 34 54
-1.348260e+00 1.236160e-01 1.106956e+01 42 36 61
-2.077041e+00 1.540892e-01 1.118880e+01 80 74 77
-1.274769e+00 1.540096e-01 1.091287e+01 30 29 32
-1.860581e+00 1.653319e-01 1.106536e+01 30 28 30
-1.311160e+00 1.553441e-01 1.087691e+01 33 28 55
-1.766120e+00 1.661058e-01 1.101882e+01 42 38 61
-7.493350e-01 1.965604e-01 1.060535e+01 33 33 36
-7.493350e-01 1.965604e-01 1.060535e+01 33 33 36
-1.014899e+00 2.008271e-01 1.067070e+01 38 37 41
-5.543214e-01 2.024440e-01 1.049758e+01 149 155 142
-6.213826e-01 2.075064e-01 1.051265e+01 38 38 55
-3.625891e+00 2.752066e-01 1.113380e+01 95 87 56
-3.995874e+00 3.677421e-01 1.092845e+01 59 52 62
-1.440025e+00 4.058642e-01 1.009402e+01 36 38 47
-1.071896e+00 4.878645e-01 9.721776e+00 81 95 109
-3.765505e-01 5.191112e-01 9.473793e+00 123 127 135
-6.559995e-01 5.482985e-01 9.494122e+00 61 89 119
-7.510525e-01 6.007146e-01 9.290125e+00 130 137 147
-1.156016e+00 5.965848e-01 9.434381e+00 72 82 89
-2.557621e+00 8.643918e-01 1.056606e+01 64 51 39
-4.135558e+00 6.859492e-01 9.824532e+00 99 97 95
-4.135558e+00 6.859492e-01 9.824532e+00 99 97 95
-2.782810e+00 1.037511e+00 1.074586e+01 72 65 60
-2.782810e+00 1.037511e+00 1.074586e+01 72 65 60
-5.542242e+00 7.903358e-01 1.000372e+01 63 67 46
-1.105767e+00 9.845108e-01 8.105183e+00 187 184 191
-1.142036e+00 9.827024e-01 8.115076e+00 127 138 149
-4.144005e+00 9.276243e-01 9.039404e+00 174 169 162
-2.083579e+00 1.051953e+00 8.081137e+00 122 138 156
-2.702534e+00 1.308670e+00 1.085958e+01 57 49 41
-2.824059e+00 1.368179e+00 1.080446e+01 63 60 49
-2.733810e+00 1.563318e+00 1.091755e+01 107 95 77
-2.386218e+00 1.620288e+00 1.056789e+01 60 57 42
-2.705168e+00 1.716906e+00 1.098349e+01 23 23 20
-2.719164e+00 1.744847e+00 1.097981e+01 20 20 18
-8.297276e+00 1.897052e+00 6.881237e+00 78 71 53
-2.852472e+00 1.791928e+00 1.090331e+01 54 51 42
-2.852472e+00 1.791928e+00 1.090331e+01 54 51 42
-2.289681e+00 1.880601e+00 1.042690e+01 60 56 45
-2.669066e+00 1.858718e+00 1.103557e+01 19 19 15
-2.337592e+00 5.450158e-02 1.162590e+01 53 42 70
-1.746772e+00 2.011960e-01 1.088702e+01 156 157 146
-9.163894e-01 2.340761e-01 1.047364e+01 149 155 121
-8.441277e-01 2.612865e-01 1.043006e+01 44 43 58
-1.490425e+00 2.918032e-01 1.049245e+01 40 37 48
-1.049770e+00 3.173921e-01 1.029729e+01 159 154 154
-1.244886e+00 3.427939e-01 1.023852e+01 52 54 79
-3.999141e+00 3.773946e-01 1.089186e+01 90 82 100
-1.542986e+00 4.249974e-01 1.006880e+01 47 49 75
-1.056255e+00 4.724084e-01 9.788169e+00 114 120 124
-2.434909e+00 5.878385e-01 1.014440e+01 34 29 28
-2.423322e+00 5.933949e-01 1.012539e+01 35 31 30
-5.655649e-01 6.199725e-01 9.235771e+00 71 94 122
-2.545190e+00 8.341755e-01 1.053035e+01 60 48 33
-4.671132e+00 6.735023e-01 1.014341e+01 155 149 141
-2.937551e+00 9.402904e-01 1.061347e+01 72 70 57
-3.925709e+00 8.366112e-01 9.320250e+00 180 178 167
-4.021941e+00 8.328073e-01 9.266398e+00 113 113 111
-1.026194e+00 9.046378e-01 8.329431e+00 179 188 192
-4.093963e+00 8.363301e-01 9.255715e+00 173 170 152
-4.085958e+00 8.474736e-01 9.238503e+00 105 105 104
-4.029460e+00 8.515356e-01 9.179461e+00 112 112 113
-3.873674e+00 8.562547e-01 9.115753e+00 177 170 176
-1.924667e+00 1.199297e+00 7.540612e+00 133 155 181
-6.385360e+00 1.108905e+00 8.874768e+00 108 97 76
-4.815630e+00 1.180938e+00 8.391713e+00 93 91 52
-5.992412e+00 1.298940e+00 8.165246e+00 114 108 84
-6.786298e+00 1.308682e+00 8.342503e+00 62 54 39
-2.838334e+00 1.490607e+00 1.082634e+01 104 93 75
-2.876909e+00 1.562425e+00 1.082407e+01 26 27 25
-2.876909e+00 1.562425e+00 1.082407e+01 26 27 25
-2.512226e+00 1.591170e+00 1.079676e+01 55 53 45
-2.749105e+00 1.592398e+00 1.091612e+01 104 93 74
-2.284095e+00 1.646610e+00 1.032283e+01 79 75 63
-2.273707e+00 1.652590e+00 1.028151e+01 59 52 40
-2.273707e+00 1.652590e+00 1.028151e+01 59 52 40
-8.407343e+00 1.922901e+00 6.845846e+00 90 83 65
-2.213222e+00 2.029630e+00 1.029938e+01 58 53 44
-1.364355e+00 9.027937e-02 1.122191e+01 149 150 132
-1.139405e+00 1.348806e-01 1.094626e+01 137 142 101
-2.130473e+00 1.608194e-01 1.118117e+01 136 131 136
-7.768331e-01 2.061744e-01 1.058918e+01 141 147 112
-1.744754e+00 3.039268e-01 1.049876e+01 159 166 151
-1.071128e+00 4.714372e-01 9.770820e+00 73 90 115
-1.014829e+00 4.856749e-01 9.752609e+00 125 127 133
-9.631468e-01 4.943561e-01 9.654779e+00 58 85 119
-1.143770e+00 5.014899e-01 9.707940e+00 119 123 128
-3.361133e-01 5.207156e-01 9.393256e+00 120 126 129
-3.361133e-01 5.207156e-01 9.393256e+00 120 126 129
-2.462933e+00 5.473767e-01 1.021338e+01 30 25 20
-7.781854e-01 5.448273e-01 9.446077e+00 111 125 138
-2.427926e+00 5.629396e-01 1.012246e+01 30 29 25
-4.492353e+00 5.179231e-01 1.063551e+01 76 68 91
-4.072938e+00 5.125704e-01 1.045209e+01 153 159 121
-2.408098e+00 5.726539e-01 1.009701e+01 37 33 31
-2.531388e+00 6.339600e-01 1.040737e+01 63 49 41
-2.391399e+00 5.776357e-01 1.002007e+01 35 32 25
-9.997599e-01 5.893455e-01 9.425211e+00 84 100 121
-4.571233e-01 5.960297e-01 9.195144e+00 114 125 137
-2.378603e+00 6.126695e-01 9.991545e+00 36 35 30
-4.762166e+00 5.529120e-01 1.051125e+01 61 57 72
-4.697488e+00 5.713196e-01 1.053525e+01 148 149 124
-2.396354e+00 6.970875e-01 1.008297e+01 71 56 45
-2.633127e+00 7.864944e-01 1.063900e+01 56 44 38
-4.106592e+00 5.916244e-01 1.015821e+01 148 151 127
-4.914921e+00 5.918360e-01 1.041953e+01 144 144 118
-1.399482e+00 6.895427e-01 9.135711e+00 130 139 152
-2.392506e+00 9.080398e-01 1.017934e+01 74 61 51
-2.403507e+00 1.013027e+00 1.032355e+01 68 55 45
-5.639118e+00 7.947009e-01 1.001306e+01 97 107 49
-5.563033e+00 7.988401e-01 9.968348e+00 140 140 120
-2.282532e+00 1.048121e+00 1.004283e+01 64 51 35
-5.700439e+00 8.523965e-01 9.832522e+00 140 143 96
-2.851312e+00 1.129154e+00 1.071481e+01 103 96 74
-1.071179e+00 1.053915e+00 7.886529e+00 117 124 114
-1.728744e+00 1.160709e+00 7.615513e+00 117 134 149
-4.147815e+00 1.096388e+00 8.376213e+00 101 94 88
-6.345450e+00 1.077192e+00 9.048499e+00 100 89 73
-2.001379e+00 1.211410e+00 7.511041e+00 164 182 214
-6.285740e+00 1.097636e+00 8.978956e+00 65 54 38
-6.390060e+00 1.129850e+00 8.814751e+00 59 53 48
-4.356786e+00 1.198029e+00 8.080341e+00 103 99 61
-4.356786e+00 1.198029e+00 8.080341e+00 103 99 61
-6.476705e+00 1.150625e+00 8.885442e+00 103 95 75
-6.476705e+00 1.150625e+00 8.885442e+00 103 95 75
-6.218103e+00 1.204778e+00 8.504895e+00 67 61 47
-4.949133e+00 1.314887e+00 7.814151e+00 163 160 141
-6.884933e+00 1.346649e+00 8.240282e+00 70 63 44
-2.714571e+00 1.535499e+00 1.091833e+01 107 94 77
-2.838282e+00 1.536197e+00 1.085395e+01 49 44 36
-2.874709e+00 1.581176e+00 1.082585e+01 61 57 48
-7.567157e+00 1.586158e+00 7.720013e+00 64 56 42
-2.734694e+00 1.865171e+00 1.100432e+01 103 101 88
-2.795355e+00 1.868106e+00 1.096475e+01 103 101 88
-2.315357e+00 8.054523e-02 1.157585e+01 114 113 118
-1.734416e+00 -1.401625e+00 8.222534e+00 135 143 110
-1.301530e+00 1.352015e-01 1.099823e+01 68 64 79
-1.412021e+00 1.686680e-01 1.090607e+01 47 45 25
-1.559945e+00 4.302124e-01 1.003472e+01 93 89 103
-1.503109e+00 4.674752e-01 9.916692e+00 177 176 187
-6.277796e-01 5.317875e-01 9.504015e+00 97 89 107
-5.810734e-01 5.625487e-01 9.356204e+00 123 127 137
-5.829452e-01 5.639162e-01 9.370440e+00 123 127 137
-5.543468e-01 6.048347e-01 9.222881e+00 120 133 154
-4.140429e+00 5.970400e-01 1.016152e+01 61 61 64
-4.771957e+00 6.426232e-01 1.031182e+01 59 57 72
-3.836722e+00 6.353034e-01 9.859936e+00 189 179 164
-4.303120e+00 6.397133e-01 1.007684e+01 82 72 87
-3.838027e+00 6.470978e-01 9.855260e+00 130 125 118
-2.698489e+00 1.009175e+00 1.077778e+01 97 92 71
-3.876018e+00 7.591857e-01 9.463015e+00 175 169 153
-4.382879e+00 7.765591e-01 9.604791e+00 80 76 75
-4.059758e+00 8.110035e-01 9.346836e+00 165 161 139
-4.059758e+00 8.110035e-01 9.346836e+00 165 161 139
-5.314468e+00 8.081479e-01 9.937777e+00 113 98 100
-3.730312e+00 8.163005e-01 9.215994e+00 93 94 98
-4.003634e+00 8.918455e-01 9.062386e+00 175 172 165
-3.894829e+00 9.133701e-01 8.913243e+00 171 165 171
-4.190936e+00 9.311623e-01 9.028256e+00 160 150 149
-2.203937e+00 1.063136e+00 7.975687e+00 130 135 147
-9.851118e-01 1.125098e+00 7.653079e+00 151 162 170
-4.940116e+00 1.033687e+00 8.926271e+00 126 122 112
-4.940116e+00 1.033687e+00 8.926271e+00 126 122 112
-4.164538e+00 1.110245e+00 8.343197e+00 165 153 154
-4.311815e+00 1.149858e+00 8.247120e+00 119 115 107
-4.348474e+00 1.201584e+00 8.033043e+00 127 123 116
-4.632833e+00 1.199361e+00 8.167827e+00 122 112 87
-4.355087e+00 1.209660e+00 8.059479e+00 168 165 157
-4.762754e+00 1.227650e+00 8.112653e+00 113 97 62
-4.707936e+00 1.269867e+00 7.915600e+00 122 112 94
-2.564678e+00 1.537539e+00 1.087790e+01 55 55 47
-2.564678e+00 1.537539e+00 1.087790e+01 55 55 47
-2.889246e+00 1.536682e+00 1.081021e+01 97 87 73
