ply
format ascii 1.0
element face 0
property list uchar int vertex_indices
element vertex 948
property float x
property float y
property float z
property uchar diffuse_red
property uchar diffuse_green
property uchar diffuse_blue
end_header
-2.515280e+00 1.490726e+00 1.056585e+01 17 18 13
-2.470823e+00 1.595210e+00 1.058595e+01 93 78 57
-2.169679e+00 2.074352e-01 1.092287e+01 155 151 140
-2.302474e+00 2.218611e-01 1.092977e+01 156 149 143
-1.436813e+00 2.377503e-01 1.050209e+01 161 161 159
-2.831618e+00 2.101765e-01 1.109751e+01 18 16 17
-1.973311e+00 2.606665e-01 1.069985e+01 161 158 151
-9.331190e-01 3.054222e-01 1.024768e+01 161 162 167
-2.726733e+00 2.555876e-01 1.098859e+01 155 148 130
-1.582360e+00 2.914658e-01 1.041328e+01 109 107 115
-1.889652e+00 2.833673e-01 1.054338e+01 91 93 106
-1.667273e+00 2.905135e-01 1.040831e+01 156 155 150
-8.009579e-01 3.138972e-01 9.998344e+00 166 167 172
-9.005029e-01 3.542803e-01 1.006377e+01 60 72 104
-9.005029e-01 3.542803e-01 1.006377e+01 60 72 104
-1.379674e+00 3.716294e-01 1.004380e+01 84 81 100
-1.809490e+00 3.816255e-01 1.011066e+01 60 58 55
-1.013614e+00 4.342507e-01 9.679539e+00 87 100 117
-1.013614e+00 4.342507e-01 9.679539e+00 87 100 117
-1.538320e+00 4.193526e-01 9.915786e+00 166 164 165
-1.541328e+00 4.257721e-01 9.929495e+00 166 164 165
-1.353367e+00 4.529500e-01 9.742449e+00 61 73 103
-1.632610e+00 4.425337e-01 9.866305e+00 163 161 159
-1.673437e+00 5.310101e-01 9.594586e+00 178 177 183
-2.525965e+00 7.158621e-01 1.024127e+01 58 50 37
-4.008659e+00 5.652489e-01 1.013989e+01 61 56 53
-4.172760e+00 6.097161e-01 1.007933e+01 110 104 96
-4.144570e+00 6.180161e-01 1.011644e+01 110 104 96
-2.503502e+00 9.019361e-01 1.033656e+01 42 35 27
-2.503502e+00 9.019361e-01 1.033656e+01 42 35 27
-6.321669e-01 2.062796e-01 1.024340e+01 154 159 168
-6.712312e-01 2.179994e-01 1.022929e+01 158 163 164
-7.158926e-01 2.211144e-01 1.025504e+01 157 159 171
-7.148800e-01 2.211023e-01 1.025289e+01 157 159 171
-7.158926e-01 2.211144e-01 1.025504e+01 157 159 171
-7.331250e-01 2.346108e-01 1.023204e+01 161 164 171
-2.817268e+00 2.183238e-01 1.105993e+01 24 17 24
-2.817268e+00 2.183238e-01 1.105993e+01 24 17 24
-7.687628e-01 2.756966e-01 1.013685e+01 164 165 170
-1.523415e+00 2.614931e-01 1.048644e+01 157 157 152
-1.523415e+00 2.614931e-01 1.048644e+01 157 157 152
-2.690874e+00 2.421105e-01 1.101202e+01 147 145 126
-6.564165e-01 2.795167e-01 1.003347e+01 162 165 169
-9.487730e-01 2.872460e-01 1.015700e+01 160 158 163
-9.689012e-01 3.073690e-01 1.022207e+01 160 158 163
-1.630533e+00 2.793623e-01 1.043487e+01 159 158 154
-1.697930e+00 2.904563e-01 1.038590e+01 156 155 150
-1.093517e+00 3.281210e-01 1.015645e+01 163 161 167
-9.426994e-01 3.511358e-01 9.967178e+00 161 162 163
-1.040476e+00 3.802433e-01 9.953484e+00 165 163 166
-1.040476e+00 3.802433e-01 9.953484e+00 165 163 166
-1.271064e+00 3.576473e-01 1.001343e+01 166 167 170
-1.341541e+00 3.825811e-01 1.001332e+01 167 167 167
-1.366955e+00 3.884834e-01 9.992316e+00 166 166 169
-1.859717e+00 3.638501e-01 1.008983e+01 180 183 183
-1.148858e+00 4.162511e-01 9.780712e+00 72 82 117
-1.155038e+00 4.235642e-01 9.807152e+00 72 82 117
-1.195807e+00 4.293297e-01 9.786336e+00 67 78 110
-1.288360e+00 4.317392e-01 9.843547e+00 70 81 112
-1.288360e+00 4.317392e-01 9.843547e+00 70 81 112
-1.521515e+00 4.107102e-01 9.857334e+00 162 160 161
-1.390054e+00 4.488639e-01 9.751808e+00 173 173 173
-3.252860e+00 3.777992e-01 1.074864e+01 83 80 62
-1.400038e+00 4.679776e-01 9.716141e+00 59 70 98
-1.444439e+00 4.776807e-01 9.706164e+00 59 72 104
-1.687961e+00 4.592529e-01 9.823876e+00 164 162 163
-1.572922e+00 5.161756e-01 9.603080e+00 51 60 85
-1.630727e+00 5.168496e-01 9.576457e+00 59 64 91
-8.434614e-01 5.919102e-01 9.155261e+00 73 85 110
-1.394647e+00 5.719582e-01 9.397864e+00 151 108 130
-3.566677e+00 4.529918e-01 1.052364e+01 152 153 139
-2.355902e+00 6.167200e-01 9.786781e+00 48 47 44
-2.355902e+00 6.167200e-01 9.786781e+00 48 47 44
-3.840860e+00 6.726703e-01 9.768950e+00 104 99 93
-3.768994e+00 7.158060e-01 9.596688e+00 158 150 135
-3.991747e+00 7.126153e-01 9.621852e+00 152 143 134
-3.765569e+00 8.766478e-01 9.018434e+00 170 171 165
-3.754680e+00 8.789736e-01 9.042958e+00 170 171 165
-3.849355e+00 9.169429e-01 8.895046e+00 157 152 138
-2.484940e+00 1.233738e+00 1.043017e+01 23 24 19
-2.497604e+00 1.233280e+00 1.037405e+01 23 24 19
-2.651658e+00 1.557722e+00 1.048615e+01 82 80 65
-2.278279e+00 1.847466e-01 1.101345e+01 145 142 123
-2.157673e+00 1.987199e-01 1.095378e+01 48 38 51
-1.607484e+00 2.262888e-01 1.068414e+01 155 155 146
-1.306694e+00 2.415755e-01 1.056031e+01 157 156 152
-1.306694e+00 2.415755e-01 1.056031e+01 157 156 152
-1.288155e+00 2.476096e-01 1.055957e+01 56 57 73
-2.153626e+00 2.212829e-01 1.087808e+01 157 155 136
-2.153536e+00 2.225102e-01 1.087990e+01 157 155 136
-2.161454e+00 2.262352e-01 1.085303e+01 53 44 54
-2.193161e+00 2.276053e-01 1.085266e+01 35 30 36
-2.177792e+00 2.305682e-01 1.085167e+01 156 156 140
-1.696284e+00 2.373782e-01 1.062024e+01 158 157 154
-2.232701e+00 2.328364e-01 1.085639e+01 28 20 30
-1.523411e+00 2.398598e-01 1.051596e+01 159 158 152
-7.557029e-01 2.545222e-01 1.016866e+01 158 160 172
-2.217416e+00 2.416906e-01 1.082931e+01 24 20 24
-1.555161e+00 2.663019e-01 1.046894e+01 159 158 152
-1.537287e+00 2.815743e-01 1.043955e+01 156 157 152
-2.029769e+00 3.070489e-01 1.047707e+01 160 159 154
-1.787893e+00 3.189167e-01 1.034935e+01 158 155 150
-9.998837e-01 3.759518e-01 9.989792e+00 162 162 159
-9.998837e-01 3.759518e-01 9.989792e+00 162 162 159
-1.253165e+00 3.592574e-01 1.006634e+01 167 166 166
-1.297474e+00 3.716690e-01 1.005434e+01 169 167 171
-1.087148e+00 3.934584e-01 9.940896e+00 167 166 166
-7.306646e-01 4.270923e-01 9.731850e+00 164 162 165
-1.154159e+00 4.059472e-01 9.851012e+00 173 171 178
-1.198995e+00 4.226026e-01 9.860378e+00 174 172 175
-1.358847e+00 4.377544e-01 9.811856e+00 172 174 172
-1.422033e+00 4.632920e-01 9.778244e+00 61 72 98
-1.553353e+00 4.631547e-01 9.811143e+00 168 168 169
-1.659503e+00 4.530945e-01 9.833135e+00 163 162 158
-1.724661e+00 4.681036e-01 9.834819e+00 165 161 159
-1.618359e+00 4.767852e-01 9.773619e+00 166 165 163
-1.512469e+00 4.865301e-01 9.722386e+00 58 69 94
-1.508592e+00 4.795929e-01 9.688353e+00 58 69 94
-1.556835e+00 4.972618e-01 9.724870e+00 55 64 94
-1.556835e+00 4.972618e-01 9.724870e+00 55 64 94
-1.667651e+00 4.903830e-01 9.755237e+00 169 169 168
-1.520727e+00 4.646558e-01 9.494060e+00 56 68 95
-1.535205e+00 4.966290e-01 9.630741e+00 56 68 95
-1.625569e+00 4.952369e-01 9.632159e+00 173 169 167
-1.625569e+00 4.952369e-01 9.632159e+00 173 169 167
-1.542355e+00 5.159968e-01 9.622623e+00 171 172 170
-1.609549e+00 5.037790e-01 9.593776e+00 172 168 169
-9.607450e-01 5.829016e-01 9.241863e+00 74 90 117
-1.145556e+00 5.835006e-01 9.283829e+00 77 94 122
-3.570281e+00 4.274996e-01 1.051263e+01 55 53 31
-3.570281e+00 4.274996e-01 1.051263e+01 55 53 31
-3.417330e+00 4.607328e-01 1.052928e+01 82 75 84
-2.778944e+00 6.501256e-01 1.013457e+01 34 34 31
-1.446565e+00 8.831357e-01 8.302812e+00 86 102 128
-3.625503e+00 7.082146e-01 9.543462e+00 108 104 102
-3.277514e+00 8.205520e-01 8.957851e+00 116 128 152
-3.277514e+00 8.205520e-01 8.957851e+00 116 128 152
-3.506434e+00 9.922023e-01 8.446131e+00 189 192 199
-3.594882e+00 9.992216e-01 8.451409e+00 127 132 150
-3.530077e+00 1.018506e+00 8.334899e+00 127 142 163
-2.486214e+00 1.263985e+00 1.044072e+01 20 21 17
-2.211249e+00 1.714070e+00 9.889278e+00 25 26 21
-2.606513e+00 1.566047e+00 1.052269e+01 17 17 15
-2.460418e+00 1.580439e+00 1.054028e+01 19 21 16
-2.458292e+00 1.578762e+00 1.055675e+01 19 21 16
-2.626738e+00 1.571986e+00 1.050148e+01 17 19 17
-6.400374e-01 1.906404e-01 1.029089e+01 84 85 114
-6.216362e-01 1.991432e-01 1.025194e+01 85 90 121
-2.174351e+00 1.948434e-01 1.095398e+01 147 150 127
-2.285634e+00 1.925192e-01 1.099689e+01 33 27 35
-9.715814e-01 2.542048e-01 1.046893e+01 154 154 162
-1.797235e+00 2.234920e-01 1.077266e+01 150 151 137
-9.531363e-01 2.563025e-01 1.045376e+01 71 74 105
-9.531363e-01 2.563025e-01 1.045376e+01 71 74 105
-7.307912e-01 2.212678e-01 1.024758e+01 85 86 115
-1.589737e+00 2.261671e-01 1.064206e+01 161 162 156
-1.591113e+00 2.267982e-01 1.065152e+01 161 162 156
-1.607332e+00 2.309458e-01 1.065599e+01 47 42 63
-1.608302e+00 2.343853e-01 1.066157e+01 47 42 63
-6.364221e-01 2.288010e-01 1.018536e+01 83 88 125
-6.364221e-01 2.288010e-01 1.018536e+01 83 88 125
-1.849997e+00 2.341395e-01 1.076180e+01 153 153 133
-1.308228e+00 2.484776e-01 1.053569e+01 54 53 85
-1.461100e+00 2.297585e-01 1.054603e+01 52 49 76
-2.579056e+00 2.118401e-01 1.103288e+01 34 26 41
-1.019960e+00 2.380760e-01 1.033431e+01 60 61 82
-1.033814e+00 2.480058e-01 1.036946e+01 60 61 82
-1.019960e+00 2.380760e-01 1.033431e+01 60 61 82
-1.674805e+00 2.428554e-01 1.065398e+01 157 155 147
-2.832378e+00 2.094686e-01 1.111402e+01 24 20 20
-1.516536e+00 2.461911e-01 1.055482e+01 57 55 72
-2.816579e+00 2.046785e-01 1.107817e+01 146 142 118
-8.505224e-01 2.474047e-01 1.023167e+01 157 161 163
-1.890436e+00 2.439516e-01 1.072267e+01 157 155 140
-1.722895e+00 2.442072e-01 1.061249e+01 155 157 147
-2.849484e+00 2.179070e-01 1.108727e+01 32 25 34
-7.651080e-01 2.614443e-01 1.015350e+01 79 85 121
-1.958346e+00 2.454564e-01 1.069807e+01 34 29 41
-1.106163e+00 2.864594e-01 1.038243e+01 55 59 77
-1.552349e+00 2.620194e-01 1.050744e+01 51 49 74
-2.719321e+00 2.274494e-01 1.099592e+01 44 34 38
-2.564145e+00 2.518947e-01 1.090662e+01 158 154 144
-1.554606e+00 2.734836e-01 1.042212e+01 46 48 64
-1.208100e+00 2.942011e-01 1.028507e+01 52 57 78
-1.867877e+00 2.761781e-01 1.056188e+01 160 160 152
-1.032854e+00 3.013647e-01 1.017074e+01 54 56 86
-2.776118e+00 2.537070e-01 1.089547e+01 52 39 63
-2.764117e+00 2.673813e-01 1.092688e+01 52 39 63
-4.548093e-01 3.218023e-01 9.818340e+00 160 165 170
-1.077597e+00 3.292473e-01 1.006502e+01 162 162 160
-1.773847e+00 3.133236e-01 1.036417e+01 154 154 144
-1.245073e+00 3.452622e-01 1.012226e+01 165 164 166
-1.242928e+00 3.424204e-01 1.011253e+01 165 164 166
-9.430430e-01 3.656263e-01 1.000175e+01 162 162 164
-1.775422e+00 3.267113e-01 1.030888e+01 153 151 146
-1.753586e+00 3.299752e-01 1.029485e+01 35 37 51
-1.482503e+00 3.444686e-01 1.017659e+01 154 156 146
-1.550057e+00 3.543463e-01 1.015710e+01 42 43 67
-1.281136e+00 3.835368e-01 9.989973e+00 165 164 169
-1.490645e+00 3.953103e-01 9.975186e+00 163 160 167
-1.516153e+00 4.172229e-01 9.901201e+00 169 167 171
-1.239690e+00 4.369552e-01 9.782710e+00 173 175 173
-1.239198e+00 4.369450e-01 9.782454e+00 173 175 173
-1.239690e+00 4.369552e-01 9.782710e+00 173 175 173
-1.537414e+00 4.310234e-01 9.815964e+00 165 165 165
-1.291681e+00 5.373786e-01 9.470855e+00 66 94 133
-1.143280e+00 5.544903e-01 9.396628e+00 80 98 118
-1.451355e+00 5.416436e-01 9.537463e+00 92 106 127
-1.178275e+00 5.753481e-01 9.336931e+00 165 167 173
-1.505904e+00 5.596718e-01 9.481704e+00 177 173 173
-3.522872e+00 4.276756e-01 1.050001e+01 155 153 142
-3.480905e+00 4.576717e-01 1.054388e+01 158 150 143
-3.534445e+00 4.378208e-01 1.048584e+01 38 31 36
-2.714945e+00 5.189793e-01 1.012661e+01 96 86 59
-2.488867e+00 5.382835e-01 1.001150e+01 26 26 23
-2.492134e+00 5.338391e-01 9.993107e+00 26 26 23
-4.073057e-01 8.464974e-01 8.257201e+00 169 169 169
-3.600320e+00 5.855871e-01 1.014603e+01 165 163 149
-2.526760e+00 7.607737e-01 1.024227e+01 62 51 40
-2.526760e+00 7.607737e-01 1.024227e+01 62 51 40
-5.206159e-01 8.567538e-01 8.217563e+00 111 118 111
-1.890503e+00 7.563911e-01 8.907717e+00 160 167 176
-2.717032e-01 1.029489e+00 7.636216e+00 94 80 74
-3.569003e+00 6.908976e-01 9.678252e+00 111 111 105
-3.531215e-01 1.025110e+00 7.629297e+00 159 156 153
-3.595058e+00 6.887162e-01 9.586407e+00 162 157 140
-3.921654e-01 1.034529e+00 7.605396e+00 159 155 155
-3.589139e+00 7.026315e-01 9.564477e+00 116 111 109
-3.588148e-01 1.049204e+00 7.599042e+00 90 75 72
-3.843419e+00 6.963573e-01 9.827673e+00 71 67 64
-3.890450e+00 6.833762e-01 9.742820e+00 71 67 64
-3.661675e+00 7.182905e-01 9.597452e+00 161 155 139
-5.137203e-01 1.067017e+00 7.519917e+00 177 176 182
-3.708802e+00 7.217059e-01 9.544542e+00 160 152 136
-3.708482e+00 7.206178e-01 9.545202e+00 160 152 136
-3.761326e+00 7.149721e-01 9.577174e+00 157 151 136
-2.579291e+00 9.300940e-01 1.033551e+01 105 93 70
-3.744531e+00 7.282345e-01 9.517253e+00 155 152 133
-3.793553e+00 7.462242e-01 9.575927e+00 93 93 91
-3.804238e+00 7.568042e-01 9.527362e+00 156 150 136
-3.868362e+00 7.518614e-01 9.495460e+00 124 121 117
-3.316163e+00 8.342104e-01 8.961194e+00 121 135 163
-3.872712e+00 7.802854e-01 9.390908e+00 156 146 133
-1.779494e+00 1.043542e+00 7.859303e+00 141 154 174
-1.779494e+00 1.043542e+00 7.859303e+00 141 154 174
-4.577417e+00 7.988648e-01 9.721672e+00 146 136 124
-3.448489e+00 9.767062e-01 8.455593e+00 193 194 199
-3.448489e+00 9.767062e-01 8.455593e+00 193 194 199
-2.579897e+00 1.090790e+00 1.038986e+01 53 45 34
-2.577818e+00 1.117078e+00 1.040397e+01 41 32 24
-4.267412e+00 9.621211e-01 9.027659e+00 66 70 45
-2.691088e+00 1.153199e+00 1.033518e+01 96 81 60
-2.693718e+00 1.152964e+00 1.032567e+01 96 81 60
-2.502960e+00 1.181865e+00 1.037069e+01 59 47 35
-4.222978e+00 1.072915e+00 8.604547e+00 156 155 141
-4.174282e+00 1.132951e+00 8.218524e+00 139 124 93
-2.544513e+00 1.281986e+00 1.047940e+01 103 90 64
-4.991825e+00 1.168006e+00 8.298682e+00 100 89 67
-2.472697e+00 1.391596e+00 1.040610e+01 51 49 36
-2.390895e+00 1.467941e+00 1.019577e+01 51 48 39
-2.343517e+00 1.538036e+00 1.019656e+01 65 65 57
-2.723247e+00 1.499082e+00 1.040314e+01 117 110 95
-1.548306e+00 1.936215e-01 1.069416e+01 152 152 133
-6.606642e-01 1.948928e-01 1.028673e+01 81 83 114
-1.532378e+00 2.163411e-01 1.071523e+01 51 48 66
-2.278554e+00 1.968178e-01 1.097711e+01 58 45 72
-9.476280e-01 2.264245e-01 1.042301e+01 65 66 97
-1.605589e+00 2.281415e-01 1.072198e+01 47 42 67
-2.109804e+00 2.107776e-01 1.091154e+01 138 143 106
-6.995474e-01 2.156043e-01 1.025443e+01 87 90 124
-6.995474e-01 2.156043e-01 1.025443e+01 87 90 124
-1.588508e+00 2.208315e-01 1.066346e+01 54 50 76
-1.588508e+00 2.208315e-01 1.066346e+01 54 50 76
-2.108393e+00 2.183320e-01 1.088288e+01 63 51 85
-1.648361e+00 2.337308e-01 1.069855e+01 40 37 45
-2.405030e+00 2.075834e-01 1.098678e+01 72 59 88
-2.253016e+00 2.168934e-01 1.090898e+01 62 49 74
-2.252657e+00 2.181965e-01 1.091160e+01 62 49 74
-1.003951e+00 2.613537e-01 1.042167e+01 153 157 160
-9.867868e-01 2.424820e-01 1.036783e+01 153 157 160
-6.554935e-01 2.351617e-01 1.017299e+01 86 92 121
-1.069169e+00 2.472021e-01 1.040666e+01 60 59 94
-1.069169e+00 2.472021e-01 1.040666e+01 60 59 94
-1.085403e+00 2.678004e-01 1.043094e+01 150 152 147
-1.362722e+00 2.539897e-01 1.051248e+01 60 59 100
-1.362722e+00 2.539897e-01 1.051248e+01 60 59 100
-1.046395e+00 2.543782e-01 1.035693e+01 63 63 90
-8.849137e-01 2.582930e-01 1.027523e+01 78 81 124
-9.101692e-01 2.825894e-01 1.034871e+01 78 81 124
-2.844623e+00 2.107300e-01 1.109867e+01 122 128 87
-2.478660e+00 2.218400e-01 1.094864e+01 69 56 81
-2.847976e+00 2.046579e-01 1.105334e+01 135 135 111
-1.887661e+00 2.460734e-01 1.067696e+01 56 48 69
-1.887775e+00 2.457992e-01 1.067869e+01 56 48 69
-1.535221e+00 2.592418e-01 1.053242e+01 51 51 81
-1.533673e+00 2.549151e-01 1.052319e+01 51 51 81
-7.810585e-01 2.624579e-01 1.016003e+01 160 165 168
-1.108838e+00 2.743534e-01 1.034895e+01 154 156 152
-1.730364e+00 2.542669e-01 1.060668e+01 52 46 84
-2.521506e+00 2.410881e-01 1.094389e+01 67 54 79
-1.205549e+00 2.920798e-01 1.036065e+01 61 64 83
-9.576993e-01 2.772138e-01 1.018656e+01 66 71 105
-1.599383e+00 2.628038e-01 1.047293e+01 53 51 73
-1.644625e+00 2.747250e-01 1.052303e+01 54 50 79
-8.669629e-01 2.818347e-01 1.013011e+01 77 83 112
-1.181272e+00 2.771955e-01 1.028236e+01 60 59 86
-1.222554e+00 2.826071e-01 1.030246e+01 59 63 82
-1.861969e+00 2.702328e-01 1.057805e+01 50 47 69
-1.861969e+00 2.702328e-01 1.057805e+01 50 47 69
-1.225146e+00 2.847821e-01 1.028713e+01 161 160 153
-1.036803e+00 2.967152e-01 1.020885e+01 156 158 150
-9.007938e-01 2.897669e-01 1.011304e+01 156 159 157
-1.880463e+00 2.773043e-01 1.057898e+01 43 39 55
-1.880154e+00 2.740737e-01 1.057298e+01 43 39 55
-2.050730e+00 2.708078e-01 1.064389e+01 160 160 150
-1.543949e+00 2.859331e-01 1.041250e+01 53 46 89
-1.082549e+00 3.115719e-01 1.023821e+01 55 58 88
-2.042632e+00 2.672019e-01 1.060729e+01 163 161 153
-9.546614e-01 3.189656e-01 1.018064e+01 64 69 96
-1.279144e+00 3.053574e-01 1.030090e+01 154 157 143
-1.066467e+00 3.134502e-01 1.020096e+01 64 64 92
-1.066467e+00 3.134502e-01 1.020096e+01 64 64 92
-2.759024e+00 2.590129e-01 1.093563e+01 135 137 91
-1.087781e+00 2.985674e-01 1.015752e+01 56 60 84
-1.110270e+00 3.193448e-01 1.023254e+01 56 60 84
-1.895887e+00 2.819988e-01 1.053977e+01 50 51 81
-2.092080e+00 2.820258e-01 1.063124e+01 160 160 142
-2.112578e+00 2.795255e-01 1.063839e+01 50 43 63
-1.602729e+00 2.918010e-01 1.039889e+01 155 155 143
-1.108106e+00 3.134053e-01 1.018951e+01 158 159 152
-1.952939e+00 2.871413e-01 1.053661e+01 49 50 68
-1.309909e+00 3.074307e-01 1.023820e+01 160 165 153
-1.019404e+00 3.307911e-01 1.014476e+01 153 160 145
-1.013151e+00 3.115377e-01 1.008542e+01 57 55 88
-1.774065e+00 2.952163e-01 1.044855e+01 52 47 73
-2.127614e+00 2.893244e-01 1.058765e+01 57 47 76
-2.127614e+00 2.893244e-01 1.058765e+01 57 47 76
-1.961172e+00 2.959839e-01 1.049280e+01 50 47 63
-1.683894e+00 3.108081e-01 1.033578e+01 42 39 60
-1.683894e+00 3.108081e-01 1.033578e+01 42 39 60
-1.103439e+00 3.406298e-01 1.010101e+01 65 65 96
-1.091076e+00 3.471281e-01 1.007545e+01 63 64 108
-5.494738e-01 3.588907e-01 9.770223e+00 102 110 127
-1.772441e+00 3.222872e-01 1.034360e+01 39 35 43
-1.772405e+00 3.215632e-01 1.034543e+01 39 35 43
-2.035392e+00 3.168745e-01 1.046134e+01 48 48 70
-1.251611e+00 3.522695e-01 1.010092e+01 64 72 110
-1.892430e+00 3.231515e-01 1.038169e+01 150 151 142
-1.903918e+00 3.217777e-01 1.037294e+01 39 37 45
-6.593676e-01 3.768672e-01 9.799876e+00 162 165 169
-1.517798e+00 3.478250e-01 1.017914e+01 64 61 91
-1.161067e+00 3.627116e-01 9.981482e+00 69 72 104
-1.936550e+00 3.363525e-01 1.033602e+01 46 44 62
-7.559950e-01 4.103601e-01 9.821796e+00 164 163 171
-1.979906e+00 3.408475e-01 1.031012e+01 162 162 163
-1.586119e+00 3.681845e-01 1.013755e+01 153 154 142
-1.871984e+00 3.463062e-01 1.023083e+01 44 42 44
-1.778753e+00 3.718232e-01 1.014364e+01 35 32 49
-1.334014e+00 4.004678e-01 9.946711e+00 65 69 95
-1.517711e+00 4.024667e-01 9.965104e+00 163 162 161
-1.516201e+00 3.989189e-01 9.954103e+00 163 162 161
-1.494648e+00 4.043768e-01 9.952395e+00 69 75 105
-1.502821e+00 4.138753e-01 9.946483e+00 164 165 170
-1.520473e+00 4.289413e-01 9.865601e+00 163 162 159
-1.709990e+00 4.418951e-01 9.859567e+00 161 158 155
-1.668900e+00 4.674183e-01 9.815270e+00 53 57 81
-1.694845e+00 5.177271e-01 9.680365e+00 181 177 182
-1.353763e+00 5.566595e-01 9.474782e+00 87 102 131
-1.398657e+00 5.489608e-01 9.476198e+00 91 103 124
-1.082696e+00 5.643187e-01 9.274860e+00 173 170 176
-1.495476e+00 5.452891e-01 9.497303e+00 91 103 123
-1.459535e+00 5.687455e-01 9.436247e+00 86 97 117
-1.071587e+00 6.017606e-01 9.235000e+00 148 146 154
-1.468549e+00 5.795468e-01 9.411861e+00 167 163 167
-2.697226e+00 5.245547e-01 1.013622e+01 30 27 21
-3.540881e+00 4.546673e-01 1.041203e+01 98 85 102
-2.327799e+00 6.363046e-01 9.723910e+00 38 35 42
-2.330329e+00 6.322723e-01 9.702785e+00 38 35 42
-4.725695e-01 8.785927e-01 8.171155e+00 82 120 126
-2.455446e+00 7.931370e-01 1.009160e+01 75 61 51
-2.520771e+00 8.451972e-01 1.023968e+01 59 51 40
-2.519173e+00 8.463825e-01 1.024749e+01 59 51 40
-4.118059e+00 6.000673e-01 1.010092e+01 148 146 133
-3.454710e+00 6.732309e-01 9.630797e+00 98 96 94
-3.454710e+00 6.732309e-01 9.630797e+00 98 96 94
-3.228207e-01 1.035210e+00 7.619078e+00 91 78 67
-3.595305e+00 6.986108e-01 9.673337e+00 95 91 90
-2.393409e+00 9.071895e-01 9.977200e+00 67 54 40
-2.385206e+00 9.131962e-01 1.002678e+01 67 54 40
-3.705951e+00 7.073162e-01 9.570377e+00 121 117 117
-4.043586e+00 6.858084e-01 9.891286e+00 149 150 126
-3.649215e+00 7.282108e-01 9.504647e+00 158 152 139
-3.662511e+00 7.398289e-01 9.525604e+00 162 154 137
-3.788631e+00 7.303774e-01 9.533313e+00 108 104 105
-3.788631e+00 7.303774e-01 9.533313e+00 108 104 105
-2.465110e+00 9.658518e-01 1.017822e+01 62 49 32
-2.459188e+00 9.687277e-01 1.021017e+01 62 49 32
-3.436479e+00 8.113090e-01 9.086365e+00 128 141 166
-3.652513e+00 8.194104e-01 9.151933e+00 172 172 159
-3.530343e+00 8.409053e-01 9.018886e+00 182 182 183
-3.557422e+00 8.415951e-01 9.042410e+00 108 117 133
-3.572829e+00 8.548846e-01 9.058667e+00 102 103 107
-3.648135e+00 8.546261e-01 9.048181e+00 172 171 160
-3.749157e+00 8.435808e-01 9.110293e+00 167 165 153
-3.680109e+00 8.660841e-01 9.042968e+00 172 172 165
-4.439957e+00 9.003098e-01 9.349416e+00 84 69 58
-3.595703e+00 1.033428e+00 8.324987e+00 142 148 168
-3.613067e+00 1.058249e+00 8.462953e+00 148 159 180
-1.765918e+00 1.396198e+00 6.572978e+00 127 131 141
-2.551614e+00 1.170171e+00 1.044529e+01 100 91 72
-4.753912e+00 9.324187e-01 9.335408e+00 96 94 30
-4.731130e+00 9.384728e-01 9.332319e+00 91 87 25
-4.144031e+00 1.055934e+00 8.552051e+00 69 77 45
-4.144031e+00 1.055934e+00 8.552051e+00 69 77 45
-4.600161e+00 1.023275e+00 8.983993e+00 100 106 32
-2.644198e+00 1.282201e+00 1.040234e+01 65 56 47
-2.549762e+00 1.294792e+00 1.047811e+01 23 21 23
-2.292336e+00 1.398446e+00 9.897524e+00 69 63 50
-2.275485e+00 1.392655e+00 1.003193e+01 69 63 50
-2.249801e+00 1.411587e+00 9.920523e+00 71 65 51
-2.258859e+00 1.416091e+00 9.834472e+00 71 65 51
-2.390035e+00 1.373841e+00 1.030326e+01 55 53 40
-2.426135e+00 1.385237e+00 1.033600e+01 50 47 36
-2.693195e+00 1.354548e+00 1.039149e+01 106 90 73
-2.364052e+00 1.449482e+00 1.017063e+01 55 51 39
-2.350792e+00 1.510235e+00 1.016358e+01 46 46 37
-2.338271e+00 1.503534e+00 1.024466e+01 46 46 37
-2.470963e+00 1.463762e+00 1.046150e+01 59 55 46
-2.470963e+00 1.463762e+00 1.046150e+01 59 55 46
-2.378898e+00 1.506820e+00 1.033790e+01 55 52 40
-2.378898e+00 1.506820e+00 1.033790e+01 55 52 40
-2.465235e+00 1.489891e+00 1.047560e+01 45 42 33
-2.457354e+00 1.486825e+00 1.051072e+01 45 42 33
-2.669505e+00 1.495705e+00 1.045655e+01 61 55 43
-2.271132e+00 1.610004e+00 1.002831e+01 54 50 39
-2.264614e+00 1.603813e+00 1.008488e+01 54 50 39
-2.246124e+00 1.616851e+00 1.003662e+01 57 55 43
-2.363119e+00 1.593061e+00 1.033177e+01 48 48 40
-2.374137e+00 1.600467e+00 1.026647e+01 48 48 40
-2.306378e+00 1.638193e+00 1.013268e+01 49 46 35
-2.306378e+00 1.638193e+00 1.013268e+01 49 46 35
-2.435596e+00 1.656798e+00 1.044465e+01 28 29 24
-1.559992e+00 2.159963e-01 1.073243e+01 64 57 102
-1.559992e+00 2.159963e-01 1.073243e+01 64 57 102
-1.539397e+00 2.066144e-01 1.066311e+01 59 50 68
-1.546784e+00 2.211334e-01 1.070251e+01 59 50 68
-2.303540e+00 2.027334e-01 1.097185e+01 59 48 65
-2.303474e+00 2.014005e-01 1.097041e+01 59 48 65
-9.916043e-01 2.557025e-01 1.048836e+01 81 80 113
-9.916043e-01 2.557025e-01 1.048836e+01 81 80 113
-1.428151e+00 2.326557e-01 1.063242e+01 80 73 105
-2.311705e+00 2.056908e-01 1.097670e+01 136 137 126
-1.021269e+00 2.626157e-01 1.046135e+01 147 149 146
-9.825178e-01 2.268957e-01 1.034999e+01 147 149 146
-2.544024e+00 2.130183e-01 1.104569e+01 150 144 133
-2.274693e+00 2.177798e-01 1.091798e+01 144 143 125
-1.017423e+00 2.628175e-01 1.043191e+01 67 69 91
-1.876168e+00 2.431326e-01 1.071711e+01 73 63 98
-9.234724e-01 2.719909e-01 1.025184e+01 154 156 145
-1.792685e+00 2.581567e-01 1.061407e+01 41 39 48
-8.408057e-01 2.776371e-01 1.019074e+01 88 91 124
-2.868091e+00 2.307641e-01 1.106509e+01 147 144 132
-1.513366e+00 2.729565e-01 1.047402e+01 70 66 88
-8.513140e-01 2.803177e-01 1.015321e+01 159 164 177
-1.197316e+00 2.785660e-01 1.026219e+01 148 155 129
-2.048494e+00 2.657844e-01 1.066489e+01 47 44 59
-2.048368e+00 2.659763e-01 1.066666e+01 47 44 59
-1.861693e+00 2.684948e-01 1.057185e+01 50 47 69
-1.711638e+00 2.844872e-01 1.048213e+01 55 50 79
-1.873369e+00 2.758115e-01 1.054243e+01 150 152 142
-4.169157e-01 3.051413e-01 9.853961e+00 106 111 136
-1.602053e+00 2.879833e-01 1.042331e+01 55 51 77
-1.610976e+00 2.925628e-01 1.041681e+01 147 147 128
-1.695256e+00 2.835854e-01 1.042935e+01 56 51 83
-9.701512e-01 3.043293e-01 1.008482e+01 153 156 147
-1.316076e+00 3.059801e-01 1.027705e+01 56 63 83
-2.144113e+00 2.819499e-01 1.063504e+01 147 149 125
-1.096585e+00 3.227360e-01 1.019871e+01 60 63 99
-1.086428e+00 3.110088e-01 1.016027e+01 60 63 99
-2.129340e+00 2.881105e-01 1.063273e+01 147 151 128
-1.773810e+00 2.951391e-01 1.045415e+01 52 48 72
-1.743042e+00 2.965111e-01 1.043365e+01 48 45 66
-1.646508e+00 3.043542e-01 1.037416e+01 152 152 143
-1.677879e+00 3.040750e-01 1.038616e+01 49 44 73
-1.812201e+00 3.015064e-01 1.042165e+01 49 49 76
-9.935782e-01 3.240488e-01 1.004367e+01 71 70 115
-9.935782e-01 3.240488e-01 1.004367e+01 71 70 115
-8.253139e-01 3.587815e-01 1.004506e+01 161 161 167
-1.768290e+00 3.072007e-01 1.038161e+01 54 52 78
-1.716039e+00 3.122617e-01 1.036003e+01 151 153 132
-1.724885e+00 3.138998e-01 1.035900e+01 35 32 40
-1.069023e+00 3.511044e-01 1.009654e+01 159 160 156
-1.787576e+00 3.089667e-01 1.036444e+01 58 52 80
-1.787833e+00 3.093841e-01 1.036504e+01 58 52 80
-1.228234e+00 3.437850e-01 1.014941e+01 154 164 154
-2.019922e+00 3.057055e-01 1.047039e+01 156 156 151
-1.868999e+00 3.117948e-01 1.039460e+01 152 153 147
-8.530236e-01 3.585020e-01 9.931824e+00 77 82 122
-1.132463e+00 3.541745e-01 1.005518e+01 57 61 87
-1.864246e+00 3.211455e-01 1.035850e+01 56 52 67
-1.864246e+00 3.211455e-01 1.035850e+01 56 52 67
-2.059909e+00 3.147545e-01 1.044396e+01 50 46 74
-2.029747e+00 3.190815e-01 1.043632e+01 68 63 93
-1.271903e+00 3.541362e-01 1.009359e+01 69 70 92
-1.193762e+00 3.629690e-01 1.006721e+01 73 73 105
-1.818310e+00 3.289370e-01 1.030850e+01 51 46 66
-1.314247e+00 3.502874e-01 1.007642e+01 160 158 167
-1.210974e+00 3.646832e-01 1.005232e+01 71 79 110
-1.825528e+00 3.316485e-01 1.028845e+01 144 145 130
-1.806745e+00 3.359611e-01 1.028813e+01 42 40 60
-1.817386e+00 3.354109e-01 1.029248e+01 151 153 143
-1.191957e+00 3.633745e-01 9.997486e+00 72 76 109
-1.195078e+00 3.675606e-01 1.001057e+01 72 76 109
-1.559722e+00 3.520520e-01 1.014539e+01 159 156 157
-1.518335e+00 3.563027e-01 1.012505e+01 69 64 92
-1.357118e+00 3.680713e-01 1.005036e+01 162 163 165
-1.857571e+00 3.456972e-01 1.026762e+01 53 48 68
-1.580229e+00 3.631531e-01 1.015155e+01 54 47 82
-1.580198e+00 3.619136e-01 1.014645e+01 54 47 82
-1.545080e+00 3.598865e-01 1.011028e+01 50 50 60
-1.546554e+00 3.634941e-01 1.012196e+01 50 50 60
-1.257163e+00 3.764340e-01 9.963688e+00 60 67 85
-7.591047e-01 4.196739e-01 9.763440e+00 84 89 114
-1.627411e+00 3.689867e-01 1.010990e+01 46 43 57
-1.346487e+00 3.923380e-01 9.972543e+00 76 79 115
-1.765450e+00 3.761156e-01 1.010379e+01 54 48 85
-1.658111e+00 3.851779e-01 1.005058e+01 49 43 78
-1.658111e+00 3.851779e-01 1.005058e+01 49 43 78
-1.471390e+00 3.953173e-01 9.966828e+00 72 74 98
-1.825961e+00 3.785240e-01 1.011736e+01 52 42 65
-1.414323e+00 4.045684e-01 9.930299e+00 66 72 95
-1.414323e+00 4.045684e-01 9.930299e+00 66 72 95
-1.680842e+00 3.893495e-01 1.003513e+01 48 45 57
-1.680842e+00 3.893495e-01 1.003513e+01 48 45 57
-1.876938e+00 3.960173e-01 1.011192e+01 89 91 108
-1.489410e+00 4.194256e-01 9.897367e+00 86 85 116
-1.377055e+00 4.303052e-01 9.842893e+00 74 81 110
-1.566670e+00 4.143384e-01 9.906482e+00 59 65 87
-1.566670e+00 4.143384e-01 9.906482e+00 59 65 87
-1.510219e+00 4.288952e-01 9.893299e+00 70 74 85
-1.510219e+00 4.288952e-01 9.893299e+00 70 74 85
-1.614491e+00 4.249110e-01 9.927801e+00 155 158 148
-1.630173e+00 4.211056e-01 9.926635e+00 61 60 76
-1.631699e+00 4.255030e-01 9.943771e+00 61 60 76
-1.593428e+00 4.215049e-01 9.895786e+00 61 62 95
-1.521677e+00 4.329034e-01 9.876782e+00 163 162 158
-1.795681e+00 4.164931e-01 9.979251e+00 50 49 72
-1.809922e+00 4.139228e-01 9.975654e+00 161 165 152
-1.615930e+00 4.300427e-01 9.900722e+00 63 61 98
-1.615930e+00 4.300427e-01 9.900722e+00 63 61 98
-1.522094e+00 4.336159e-01 9.837247e+00 67 73 105
-1.786663e+00 4.171619e-01 9.946877e+00 62 58 84
-1.801270e+00 4.239774e-01 9.977338e+00 152 152 142
-1.800715e+00 4.181089e-01 9.954654e+00 152 152 142
-1.834086e+00 4.266536e-01 1.000646e+01 168 170 163
-1.814677e+00 4.219014e-01 9.970941e+00 49 51 68
-1.814677e+00 4.219014e-01 9.970941e+00 49 51 68
-1.608597e+00 4.490765e-01 9.818106e+00 52 53 74
-1.638589e+00 4.537163e-01 9.797873e+00 56 56 80
-1.638589e+00 4.537163e-01 9.797873e+00 56 56 80
-1.715130e+00 4.463558e-01 9.822922e+00 63 66 100
-1.779357e+00 4.516840e-01 9.837381e+00 57 54 71
-1.659729e+00 4.655573e-01 9.735457e+00 65 67 82
-1.681372e+00 4.768621e-01 9.765520e+00 63 65 87
-1.200835e+00 5.263424e-01 9.486789e+00 129 136 144
-1.568204e+00 5.069107e-01 9.633549e+00 167 166 151
-1.505069e+00 5.050321e-01 9.575769e+00 76 85 119
-1.672344e+00 5.063203e-01 9.674360e+00 175 172 167
-1.672344e+00 5.063203e-01 9.674360e+00 175 172 167
-9.045681e-01 5.667297e-01 9.269902e+00 162 158 158
-3.507175e+00 4.296863e-01 1.053944e+01 157 146 147
-1.079473e+00 5.879892e-01 9.218117e+00 80 100 126
-3.575377e+00 4.397573e-01 1.047325e+01 64 61 54
-3.515729e+00 4.727415e-01 1.052212e+01 86 84 72
-2.475992e+00 6.312694e-01 1.004499e+01 64 48 39
-2.256174e+00 6.101266e-01 9.537927e+00 159 155 153
-2.658820e+00 6.399719e-01 1.020442e+01 69 64 45
-2.658820e+00 6.399719e-01 1.020442e+01 69 64 45
-4.749804e-01 8.375362e-01 8.275390e+00 64 100 111
-2.499353e+00 7.744141e-01 1.018291e+01 64 54 42
-5.127884e-01 8.774786e-01 8.217342e+00 174 167 173
-5.127884e-01 8.774786e-01 8.217342e+00 174 167 173
-2.539313e+00 7.809259e-01 1.021991e+01 64 50 38
-2.477683e+00 7.825879e-01 1.012947e+01 60 53 47
-2.469443e+00 7.871287e-01 1.011513e+01 67 52 45
-2.507412e+00 7.929297e-01 1.018029e+01 55 47 38
-2.495385e+00 8.007410e-01 1.016460e+01 64 47 32
-2.495385e+00 8.007410e-01 1.016460e+01 64 47 32
-3.567716e+00 6.282635e-01 9.957299e+00 152 151 125
-3.598904e+00 6.157606e-01 9.896177e+00 152 151 125
-4.004102e+00 5.879891e-01 1.016230e+01 158 151 140
-3.646080e+00 6.173574e-01 9.859423e+00 157 149 128
-2.512154e+00 8.194427e-01 1.019289e+01 62 47 37
-2.512154e+00 8.194427e-01 1.019289e+01 62 47 37
-2.403235e+00 8.202985e-01 9.951222e+00 67 57 47
-2.490073e+00 8.327962e-01 1.021896e+01 60 47 41
-2.428937e+00 8.334195e-01 1.002830e+01 63 56 45
-2.428937e+00 8.334195e-01 1.002830e+01 63 56 45
-2.437820e+00 8.560333e-01 1.006623e+01 64 54 44
-2.437820e+00 8.560333e-01 1.006623e+01 64 54 44
-2.371849e+00 8.643363e-01 9.965498e+00 65 56 48
-2.382750e+00 8.553857e-01 9.895855e+00 65 56 48
-3.472594e+00 6.987033e-01 9.618921e+00 163 158 141
-4.194294e-01 1.010886e+00 7.720773e+00 106 98 98
-2.402667e+00 8.731909e-01 9.953767e+00 61 52 45
-4.377252e-01 1.015053e+00 7.664990e+00 107 101 101
-2.429658e+00 8.883050e-01 1.004778e+01 58 49 39
-2.429658e+00 8.883050e-01 1.004778e+01 58 49 39
-2.412542e+00 8.962615e-01 1.008036e+01 60 48 39
-2.423483e+00 8.885773e-01 1.001791e+01 60 48 39
-2.605614e+00 8.847247e-01 1.031621e+01 77 61 52
-3.726120e+00 6.886963e-01 9.680193e+00 155 150 129
-2.309020e+00 8.988586e-01 9.718471e+00 59 51 41
-2.376440e+00 9.177190e-01 9.984211e+00 65 58 47
-2.383170e+00 9.129545e-01 9.937953e+00 65 58 47
-2.328014e+00 9.186792e-01 9.816162e+00 70 54 43
-1.270071e+00 1.008297e+00 7.922294e+00 192 200 212
-2.312564e+00 9.558142e-01 9.899433e+00 56 44 32
-2.306917e+00 9.578255e-01 9.731402e+00 62 49 33
-2.293827e+00 9.673384e-01 9.836044e+00 62 49 33
-3.315236e+00 7.972813e-01 9.213654e+00 115 125 152
-3.335902e+00 7.906593e-01 9.151722e+00 115 125 152
-3.761332e+00 7.471217e-01 9.450156e+00 117 112 116
-2.282094e+00 9.709330e-01 9.782480e+00 55 45 35
-3.792938e+00 7.766392e-01 9.469213e+00 152 149 130
-3.539956e+00 8.035184e-01 9.186705e+00 118 118 122
-3.417334e+00 8.177752e-01 9.078532e+00 187 191 195
-3.500228e+00 8.179125e-01 9.243088e+00 171 168 163
-3.536050e+00 8.117164e-01 9.223094e+00 118 119 122
-2.722544e+00 9.616405e-01 1.026503e+01 69 59 50
-2.722544e+00 9.616405e-01 1.026503e+01 69 59 50
-3.555581e+00 8.186668e-01 9.163169e+00 165 163 154
-3.871091e+00 7.831098e-01 9.479348e+00 105 102 94
-3.590670e+00 8.157156e-01 9.161194e+00 110 108 114
-3.590670e+00 8.157156e-01 9.161194e+00 110 108 114
-3.570437e+00 8.302873e-01 9.130022e+00 114 113 120
-3.629241e+00 8.225345e-01 9.135466e+00 107 107 113
-3.877680e+00 7.978803e-01 9.348130e+00 159 150 135
-3.612920e+00 8.279778e-01 9.122109e+00 169 169 161
-3.889473e+00 8.014014e-01 9.363959e+00 79 71 61
-3.396090e+00 8.591360e-01 8.926581e+00 119 134 160
-3.601194e+00 8.365992e-01 9.105233e+00 116 115 121
-4.006010e+00 7.846767e-01 9.392553e+00 145 147 110
-2.731542e+00 9.871398e-01 1.025808e+01 65 56 48
-3.671265e+00 8.467165e-01 9.051089e+00 116 116 118
-3.671265e+00 8.467165e-01 9.051089e+00 116 116 118
-3.680373e+00 8.479747e-01 9.099840e+00 166 166 155
-3.680373e+00 8.479747e-01 9.099840e+00 166 166 155
-2.474613e+00 1.035853e+00 1.023841e+01 49 41 25
-2.465570e+00 1.038797e+00 1.028254e+01 49 41 25
-3.509139e+00 8.798952e-01 8.871872e+00 127 137 162
-3.721409e+00 8.534460e-01 9.065188e+00 169 169 157
-3.725983e+00 8.587818e-01 9.134512e+00 117 113 115
-3.731616e+00 8.567061e-01 9.121752e+00 117 113 115
-3.645249e+00 8.750512e-01 9.046823e+00 110 110 119
-3.656846e+00 8.744587e-01 8.965482e+00 175 171 167
-1.968018e+00 1.095989e+00 7.739563e+00 131 150 184
-3.372321e+00 9.285728e-01 8.574139e+00 191 199 210
-2.715529e+00 1.044271e+00 1.029434e+01 63 53 51
-2.579094e+00 1.065323e+00 1.039442e+01 41 35 23
-3.439928e+00 9.740555e-01 8.430934e+00 193 193 201
-3.879783e+00 9.326960e-01 8.868275e+00 167 164 148
-1.882853e+00 1.221693e+00 7.238172e+00 84 78 70
-2.492509e+00 1.120490e+00 1.037358e+01 53 39 27
-2.492509e+00 1.120490e+00 1.037358e+01 53 39 27
-1.916971e+00 1.238846e+00 7.164122e+00 89 85 85
-2.464618e+00 1.131343e+00 1.032648e+01 72 56 42
-2.665472e+00 1.112916e+00 1.033047e+01 107 92 70
-4.603003e+00 8.756565e-01 9.306700e+00 148 147 129
-2.703792e+00 1.118519e+00 1.033285e+01 52 45 37
-2.703792e+00 1.118519e+00 1.033285e+01 52 45 37
-2.725049e+00 1.121147e+00 1.028858e+01 54 51 40
-1.793516e+00 1.351827e+00 6.697998e+00 140 138 141
-2.571161e+00 1.168074e+00 1.042172e+01 60 51 42
-2.665590e+00 1.159676e+00 1.033858e+01 61 53 46
-3.896557e+00 1.073915e+00 8.367719e+00 168 164 155
-2.692010e+00 1.168703e+00 1.035075e+01 47 42 37
-2.692010e+00 1.168703e+00 1.035075e+01 47 42 37
-2.715201e+00 1.171491e+00 1.030989e+01 53 48 44
-2.670990e+00 1.215761e+00 1.037043e+01 60 48 37
-2.673656e+00 1.215607e+00 1.036335e+01 60 48 37
-2.693606e+00 1.221580e+00 1.036773e+01 56 47 38
-2.694424e+00 1.221286e+00 1.036449e+01 56 47 38
-4.488085e+00 1.115841e+00 8.548783e+00 104 107 35
-5.206999e+00 1.012932e+00 8.960244e+00 99 88 70
-2.712664e+00 1.259439e+00 1.037062e+01 100 88 73
-2.701444e+00 1.286290e+00 1.037076e+01 102 91 74
-4.963380e+00 1.162066e+00 8.372062e+00 104 93 68
-2.603181e+00 1.299116e+00 1.043968e+01 102 92 68
-2.583650e+00 1.336970e+00 1.046828e+01 70 60 50
-2.589625e+00 1.351190e+00 1.046944e+01 102 88 72
-2.663476e+00 1.347446e+00 1.042139e+01 101 90 70
-2.663476e+00 1.347446e+00 1.042139e+01 101 90 70
-2.380505e+00 1.439216e+00 1.021643e+01 48 45 36
-2.373304e+00 1.436374e+00 1.026151e+01 48 45 36
-2.338340e+00 1.489691e+00 1.012692e+01 58 58 48
-2.271251e+00 1.534596e+00 9.965146e+00 50 47 40
-2.271251e+00 1.534596e+00 9.965146e+00 50 47 40
-2.652076e+00 1.432565e+00 1.044854e+01 57 52 40
-2.652076e+00 1.432565e+00 1.044854e+01 57 52 40
-2.336527e+00 1.520019e+00 1.013586e+01 56 53 43
-2.656022e+00 1.454697e+00 1.045368e+01 52 50 37
-2.683714e+00 1.501267e+00 1.044669e+01 54 48 36
-2.683714e+00 1.501267e+00 1.044669e+01 54 48 36
-2.221289e+00 1.643009e+00 9.895000e+00 51 48 41
-2.516792e+00 1.516720e+00 1.054407e+01 59 56 47
-2.536225e+00 1.547272e+00 1.055648e+01 16 16 14
-2.219647e+00 1.698619e+00 9.900433e+00 58 55 48
-2.605531e+00 1.548247e+00 1.051995e+01 23 19 16
-2.425384e+00 1.589872e+00 1.042087e+01 62 60 48
-2.425384e+00 1.589872e+00 1.042087e+01 62 60 48
-2.677299e+00 1.571744e+00 1.047546e+01 22 23 16
-2.590327e+00 1.588395e+00 1.053949e+01 19 17 14
-2.483885e+00 1.617540e+00 1.056891e+01 116 99 75
-1.232509e+00 2.239387e-01 1.062068e+01 69 62 88
-1.250088e+00 2.295860e-01 1.060470e+01 135 139 115
-2.140616e+00 2.051207e-01 1.094557e+01 89 78 91
-2.299494e+00 2.011928e-01 1.099169e+01 68 53 75
-2.299494e+00 2.011928e-01 1.099169e+01 68 53 75
-9.844033e-01 2.583898e-01 1.047292e+01 151 152 154
-9.532544e-01 2.355452e-01 1.038564e+01 90 93 111
-2.299820e+00 2.144973e-01 1.095034e+01 134 132 124
-1.578988e+00 2.345997e-01 1.065969e+01 77 71 102
-2.256986e+00 2.392857e-01 1.085439e+01 75 65 75
-1.936121e+00 2.565364e-01 1.067154e+01 162 158 158
-2.230735e+00 2.512228e-01 1.079930e+01 77 64 84
-8.812278e-01 3.015711e-01 1.025271e+01 89 91 136
-8.812278e-01 3.015711e-01 1.025271e+01 89 91 136
-2.040440e+00 2.600977e-01 1.070455e+01 86 78 97
-2.040440e+00 2.600977e-01 1.070455e+01 86 78 97
-1.884125e+00 2.826238e-01 1.052766e+01 144 151 128
-1.715647e+00 2.932536e-01 1.043426e+01 60 56 70
-2.824604e+00 2.771425e-01 1.093819e+01 81 73 87
-1.633234e+00 3.053777e-01 1.037079e+01 73 66 100
-5.582996e-01 3.391199e-01 9.834202e+00 111 113 141
-1.734333e+00 3.072178e-01 1.037913e+01 50 51 71
-1.726591e+00 3.066394e-01 1.036902e+01 136 138 126
-5.833150e-01 3.446000e-01 9.823223e+00 102 109 125
-1.876173e+00 3.147504e-01 1.038720e+01 70 67 96
-6.383515e-01 3.557909e-01 9.817568e+00 98 104 124
-1.895088e+00 3.215885e-01 1.038525e+01 145 146 138
-1.770798e+00 3.334374e-01 1.029012e+01 153 151 151
-6.173250e-01 3.734767e-01 9.752196e+00 159 164 167
-1.778963e+00 3.325691e-01 1.028778e+01 52 49 60
-6.934111e-01 3.744585e-01 9.786046e+00 96 101 127
-2.832365e+00 3.027687e-01 1.077889e+01 146 141 140
-1.323736e+00 3.631058e-01 1.007760e+01 162 165 162
-1.315839e+00 3.660226e-01 1.006514e+01 80 80 102
-6.614182e-01 3.855564e-01 9.744589e+00 97 103 125
-1.967894e+00 3.345556e-01 1.033788e+01 143 148 130
-1.540490e+00 3.554493e-01 1.013147e+01 147 152 140
-6.976780e-01 3.939146e-01 9.729514e+00 98 104 127
-2.007598e+00 3.433673e-01 1.033846e+01 68 62 84
-1.396889e+00 3.709653e-01 1.005560e+01 74 74 100
-7.451741e-01 4.185066e-01 9.815032e+00 99 103 116
-1.975917e+00 3.447243e-01 1.029219e+01 120 119 136
-1.731230e+00 3.593454e-01 1.017366e+01 71 64 82
-1.102785e+00 3.987409e-01 9.865523e+00 158 157 158
-1.786077e+00 3.815971e-01 1.009325e+01 56 53 61
-5.305431e-01 4.482529e-01 9.512576e+00 152 151 156
-1.490059e+00 4.100529e-01 9.944503e+00 80 88 119
-4.380665e-01 4.760175e-01 9.396436e+00 139 141 149
-1.777551e+00 4.108742e-01 9.985161e+00 51 46 68
-1.806189e+00 4.090526e-01 9.994081e+00 107 105 122
-5.217347e-01 4.802208e-01 9.413132e+00 138 145 130
-1.532757e+00 4.288171e-01 9.855270e+00 76 75 105
-1.534027e+00 4.317638e-01 9.867384e+00 76 75 105
-1.787655e+00 4.231265e-01 1.000564e+01 149 150 139
-1.561001e+00 4.351842e-01 9.839176e+00 73 74 97
-1.510713e+00 4.467968e-01 9.825573e+00 71 75 109
-1.522040e+00 4.485814e-01 9.831781e+00 168 166 174
-1.693633e+00 4.424394e-01 9.867418e+00 60 63 90
-1.614996e+00 4.598740e-01 9.818173e+00 150 157 141
-1.613153e+00 4.647373e-01 9.799357e+00 78 79 104
-1.773059e+00 4.658828e-01 9.854198e+00 65 62 91
-8.633932e-01 5.591497e-01 9.330058e+00 117 121 130
-8.526195e-01 5.520961e-01 9.291463e+00 117 121 130
-9.118370e-01 5.599779e-01 9.299038e+00 97 104 125
-1.596808e+00 5.134647e-01 9.614223e+00 161 160 159
-9.604636e-01 5.617805e-01 9.329951e+00 135 138 147
-9.604636e-01 5.617805e-01 9.329951e+00 135 138 147
-1.413740e+00 5.328334e-01 9.540625e+00 170 169 176
-1.557742e+00 5.209923e-01 9.596574e+00 81 87 109
-1.078930e+00 5.564978e-01 9.366211e+00 87 100 116
-3.774886e+00 3.959523e-01 1.073988e+01 101 104 85
-1.644804e+00 5.279781e-01 9.608155e+00 164 163 163
-1.643813e+00 5.253729e-01 9.597358e+00 164 163 163
-1.473906e+00 5.641818e-01 9.455636e+00 135 140 143
-3.573861e+00 4.306371e-01 1.050659e+01 67 61 51
-2.469872e+00 5.459110e-01 1.001111e+01 27 27 22
-2.486681e+00 5.394689e-01 9.972876e+00 58 56 48
-2.436174e+00 5.633806e-01 9.942603e+00 32 27 26
-5.270488e-01 6.873517e-01 8.839090e+00 50 60 85
-5.171916e-01 6.835561e-01 8.816192e+00 50 60 85
-1.490179e+00 5.925845e-01 9.184698e+00 113 97 114
-2.429411e+00 5.667883e-01 9.926803e+00 33 29 24
-2.410577e+00 5.970670e-01 9.889249e+00 32 30 25
-2.389493e+00 6.078665e-01 9.852476e+00 35 32 28
-2.348270e+00 6.261889e-01 9.724388e+00 40 33 35
-7.011478e-01 7.406590e-01 8.694185e+00 112 116 117
-2.255874e+00 6.189797e-01 9.520938e+00 97 83 66
-6.638016e-01 7.470162e-01 8.664076e+00 57 70 79
-7.262904e-01 7.361088e-01 8.666631e+00 124 123 129
-6.735033e-01 7.698696e-01 8.500762e+00 66 80 100
-3.924949e+00 5.605043e-01 1.020097e+01 85 68 85
-3.905563e+00 5.764665e-01 1.029055e+01 133 134 110
-1.843461e+00 7.661123e-01 8.863706e+00 107 124 150
-3.000440e-01 9.323165e-01 7.976361e+00 113 109 103
-3.000440e-01 9.323165e-01 7.976361e+00 113 109 103
-2.523639e+00 8.164637e-01 1.025036e+01 58 46 33
-2.523639e+00 8.164637e-01 1.025036e+01 58 46 33
-2.447123e+00 8.233128e-01 1.006951e+01 60 49 38
-4.064920e+00 6.057903e-01 1.012874e+01 77 64 83
-2.929578e-01 9.773250e-01 7.820661e+00 103 100 92
-3.461897e-01 9.886081e-01 7.790804e+00 115 110 114
-3.461897e-01 9.886081e-01 7.790804e+00 115 110 114
-1.882242e-01 1.011950e+00 7.677993e+00 156 145 151
-3.944208e-01 1.001044e+00 7.748688e+00 115 109 108
-2.375646e+00 8.610953e-01 9.868581e+00 72 59 50
-4.227292e+00 6.252819e-01 1.005583e+01 140 136 107
-4.156208e+00 6.458339e-01 1.012532e+01 142 135 111
-4.156208e+00 6.458339e-01 1.012532e+01 142 135 111
-4.701889e-01 1.020641e+00 7.673190e+00 117 109 110
-4.977598e-01 1.025588e+00 7.642683e+00 123 120 131
-5.063723e-01 1.027966e+00 7.667309e+00 123 120 131
-2.669771e+00 8.750483e-01 1.025568e+01 107 98 72
-2.678431e+00 8.770495e-01 1.025268e+01 102 89 74
-3.725754e+00 6.942231e-01 9.643299e+00 152 145 128
-2.653501e+00 8.976932e-01 1.029929e+01 71 62 52
-2.357997e+00 9.279713e-01 9.984321e+00 59 50 40
-2.747867e+00 8.981124e-01 1.023327e+01 109 93 79
-2.288204e+00 9.390443e-01 9.681500e+00 54 45 32
-2.741537e+00 9.026912e-01 1.023625e+01 84 70 51
-3.467529e+00 7.617350e-01 9.328731e+00 84 83 89
-3.467104e+00 7.617227e-01 9.324816e+00 84 83 89
-2.281186e+00 9.471010e-01 9.661872e+00 63 51 37
-3.513624e+00 8.003971e-01 9.207712e+00 116 119 122
-4.247432e+00 7.300292e-01 9.729988e+00 149 143 128
-3.542226e+00 8.133724e-01 9.159486e+00 173 172 168
-3.510869e+00 8.271892e-01 9.069681e+00 100 111 122
-2.571536e+00 9.964971e-01 1.037333e+01 28 19 20
-3.592092e+00 8.254365e-01 9.191438e+00 112 110 122
-3.600493e+00 8.229265e-01 9.172011e+00 112 110 122
-3.614642e+00 8.225956e-01 9.216421e+00 169 170 154
-3.651276e+00 8.224906e-01 9.217791e+00 114 113 118
-1.825333e+00 1.049151e+00 7.912088e+00 189 189 197
-3.985105e+00 7.866925e-01 9.391676e+00 79 68 68
-3.708059e+00 8.234215e-01 9.184144e+00 169 165 156
-3.555592e+00 8.486782e-01 8.998332e+00 177 175 176
-3.711919e+00 8.369313e-01 9.188556e+00 117 116 118
-1.858351e+00 1.066548e+00 7.881133e+00 116 134 152
-3.447985e+00 8.690111e-01 8.889489e+00 124 131 160
-3.205362e+00 9.157382e-01 8.786032e+00 118 136 159
-3.681434e+00 8.638263e-01 9.099422e+00 119 118 123
-2.693240e+00 1.015891e+00 1.031241e+01 103 90 63
-2.008019e+00 1.099943e+00 7.823015e+00 143 156 183
-3.357424e+00 9.303157e-01 8.571409e+00 126 139 169
-2.736360e+00 1.031167e+00 1.026303e+01 33 27 28
-2.694189e+00 1.038409e+00 1.030266e+01 58 49 44
-3.754080e+00 8.989866e-01 8.916563e+00 171 169 162
-3.400744e+00 9.522754e-01 8.505429e+00 128 139 163
-3.393033e+00 9.579222e-01 8.659449e+00 127 134 162
-2.722283e+00 1.051058e+00 1.027799e+01 106 94 72
-3.409673e+00 1.012567e+00 8.548581e+00 130 136 162
-3.658653e+00 1.024017e+00 8.421554e+00 136 142 166
-4.365457e+00 9.538487e-01 8.983103e+00 158 150 139
-1.793060e+00 1.383592e+00 6.705242e+00 130 129 141
-1.793060e+00 1.383592e+00 6.705242e+00 130 129 141
-4.145418e+00 1.087980e+00 8.569446e+00 102 95 70
-2.558161e+00 1.214259e+00 1.044768e+01 46 37 28
-4.249334e+00 1.170384e+00 8.240807e+00 118 104 79
-5.126328e+00 1.047877e+00 8.833689e+00 88 80 69
-2.486811e+00 1.303152e+00 1.039683e+01 54 56 45
-4.995244e+00 1.142852e+00 8.448110e+00 102 94 74
-5.227621e+00 1.107047e+00 8.613147e+00 99 91 70
-2.610453e+00 1.294631e+00 1.043865e+01 43 37 33
-2.613787e+00 1.303094e+00 1.043555e+01 88 75 58
-5.286923e+00 1.146736e+00 8.411348e+00 104 92 75
-2.648396e+00 1.334786e+00 1.042505e+01 65 57 46
-2.708036e+00 1.332830e+00 1.037073e+01 23 22 21
-2.702441e+00 1.331910e+00 1.039064e+01 23 22 21
-2.540652e+00 1.343521e+00 1.049892e+01 33 24 21
-2.600529e+00 1.364055e+00 1.044333e+01 29 22 19
-2.599116e+00 1.372758e+00 1.044817e+01 36 31 24
-2.621589e+00 1.454840e+00 1.047409e+01 20 21 18
-2.606944e+00 1.481781e+00 1.049445e+01 60 58 46
-2.423260e+00 1.554145e+00 1.044213e+01 52 53 45
-2.546076e+00 1.535427e+00 1.055115e+01 23 19 16
-2.593741e+00 1.539237e+00 1.051935e+01 25 22 16
-2.612535e+00 1.538759e+00 1.051012e+01 100 97 83
-2.613497e+00 1.538631e+00 1.050722e+01 100 97 83
-2.537090e+00 1.547230e+00 1.055634e+01 16 16 14
-2.663488e+00 1.561717e+00 1.048390e+01 23 23 18
-2.647898e+00 1.563992e+00 1.049405e+01 25 21 10
-2.647898e+00 1.563992e+00 1.049405e+01 25 21 10
-2.594196e+00 1.594215e+00 1.052680e+01 21 18 12
-2.598688e+00 1.598706e+00 1.053425e+01 95 88 78
-2.624823e+00 1.605465e+00 1.051947e+01 90 82 72
-2.166455e+00 2.002640e-01 1.094728e+01 96 93 104
-1.220463e+00 2.080775e-01 1.051571e+01 137 141 112
-2.315743e+00 2.048832e-01 1.098398e+01 77 68 85
-1.612990e+00 2.396426e-01 1.065789e+01 154 151 162
-1.346081e+00 2.548543e-01 1.051578e+01 86 85 104
-1.346081e+00 2.548543e-01 1.051578e+01 86 85 104
-1.047827e+00 2.774124e-01 1.037566e+01 93 89 113
-1.875045e+00 2.774614e-01 1.054181e+01 142 143 134
-1.939009e+00 2.984338e-01 1.048864e+01 154 153 163
-1.644458e+00 3.050792e-01 1.034275e+01 77 75 91
-1.645328e+00 3.082623e-01 1.035465e+01 77 75 91
-1.684262e+00 3.207633e-01 1.033970e+01 157 157 154
-6.340063e-01 3.612360e-01 9.808747e+00 108 113 141
-1.796958e+00 3.278078e-01 1.031344e+01 136 136 131
-1.836864e+00 3.336875e-01 1.029455e+01 68 67 83
-1.573198e+00 3.506630e-01 1.017400e+01 85 80 102
-1.185440e+00 3.781566e-01 9.999216e+00 101 98 121
-7.914964e-01 4.106435e-01 9.863905e+00 97 101 124
-7.965042e-01 4.068994e-01 9.844378e+00 95 97 118
-7.501037e-01 4.159156e-01 9.796491e+00 84 89 113
-1.757201e+00 3.811918e-01 1.010402e+01 158 156 156
-1.843655e+00 3.959215e-01 1.008454e+01 154 158 157
-1.843356e+00 3.970825e-01 1.008864e+01 154 158 157
-1.849812e+00 4.129135e-01 9.994581e+00 107 106 114
-1.602648e+00 4.328087e-01 9.863189e+00 91 89 113
-1.644878e+00 4.586914e-01 9.780422e+00 146 147 147
-1.591204e+00 5.019235e-01 9.697631e+00 158 167 150
-1.591204e+00 5.019235e-01 9.697631e+00 158 167 150
-1.448120e+00 5.140200e-01 9.460621e+00 164 168 166
-1.584898e+00 5.253723e-01 9.597967e+00 170 170 177
-8.002097e-01 5.899750e-01 9.164208e+00 111 118 123
-3.559640e+00 4.349393e-01 1.054768e+01 71 67 51
-3.559640e+00 4.349393e-01 1.054768e+01 71 67 51
-1.386116e+00 5.688732e-01 9.308685e+00 161 163 166
-2.701258e+00 5.165305e-01 1.014513e+01 82 77 56
-3.532355e+00 4.599898e-01 1.055819e+01 81 82 59
-1.569119e+00 6.444483e-01 9.688802e+00 106 105 124
-2.447107e+00 5.543211e-01 9.931104e+00 30 29 26
-1.445373e+00 6.250027e-01 9.251860e+00 98 115 142
-2.745623e+00 5.619100e-01 1.013245e+01 58 48 40
-9.972812e-01 6.603025e-01 8.969112e+00 111 129 155
-1.035041e+00 6.735936e-01 8.992377e+00 171 181 212
-2.398064e+00 6.045455e-01 9.872805e+00 35 29 24
-2.634722e+00 6.360512e-01 1.022749e+01 71 68 50
-3.806689e+00 4.976977e-01 1.041184e+01 96 81 86
-3.583187e+00 5.600564e-01 1.007904e+01 105 95 104
-3.553230e+00 6.195141e-01 9.960426e+00 88 82 79
-3.596811e+00 6.088715e-01 9.908076e+00 91 91 82
-3.600651e+00 6.079547e-01 9.901777e+00 91 91 82
-2.455572e+00 7.917080e-01 1.004509e+01 62 53 46
