ply
format ascii 1.0
element face 0
property list uchar int vertex_indices
element vertex 949
property float x
property float y
property float z
property uchar diffuse_red
property uchar diffuse_green
property uchar diffuse_blue
end_header
-1.921334e+01 1.107633e+01 -1.453740e+01 87 79 72
-4.947672e-01 6.439857e-01 9.235099e+00 148 154 135
-4.507323e-01 6.854917e-01 9.118169e+00 45 60 69
-1.750243e+00 8.330324e-01 8.594418e+00 130 144 169
-1.750243e+00 8.330324e-01 8.594418e+00 130 144 169
-4.127598e+00 1.138079e+00 8.375426e+00 109 93 70
-4.181810e+00 1.134541e+00 8.447604e+00 162 157 144
5.302068e+00 7.019120e+00 -7.594110e+00 4 10 8
-1.663444e-01 1.306566e+01 -2.398538e+01 29 58 65
-1.584107e+01 1.449384e+01 -3.129470e+01 137 135 160
-2.648149e+00 1.387105e+01 -2.507688e+01 85 89 103
-2.648149e+00 1.387105e+01 -2.507688e+01 85 89 103
-1.853830e+01 1.001552e+01 -1.475772e+01 19 14 21
-1.969495e+01 1.116379e+01 -1.528901e+01 19 12 26
-1.870037e+01 1.130629e+01 -1.445983e+01 79 76 87
-6.113151e-01 6.836521e-01 9.065000e+00 159 157 159
-2.570997e+00 7.874260e-01 1.052687e+01 64 50 38
-3.903496e+00 1.066611e+00 8.498797e+00 172 167 164
-3.903496e+00 1.066611e+00 8.498797e+00 172 167 164
-4.145139e+00 1.116976e+00 8.490815e+00 122 108 84
-4.861780e+00 1.231425e+00 8.192995e+00 106 95 74
5.359756e+00 1.090760e+01 -2.360496e+01 79 71 81
1.355368e+00 1.038028e+01 -2.245399e+01 241 224 253
1.406563e+00 1.089273e+01 -2.214068e+01 178 184 239
-2.934490e+00 1.171271e+01 -2.465466e+01 68 69 83
-1.937632e+01 1.082580e+01 -1.484655e+01 75 87 111
-1.933927e+01 1.080068e+01 -1.479175e+01 75 87 111
-1.504920e+01 1.583200e+01 -2.194711e+01 107 94 109
-1.471922e+01 1.566125e+01 -2.147284e+01 101 93 100
1.129031e+01 -6.446508e+00 -1.841270e+01 157 163 164
-2.415936e+00 1.338314e+00 7.269150e+00 148 155 174
-4.053004e+00 1.123627e+00 8.387416e+00 111 96 83
-2.645488e+00 1.229991e+00 1.069238e+01 101 88 70
-4.396951e+00 1.254346e+00 8.084166e+00 128 120 98
-5.887621e+00 1.288477e+00 8.359115e+00 61 52 36
-2.556874e+00 1.109796e+01 -2.373817e+01 57 106 115
-6.321197e+00 9.198823e+00 -1.473528e+01 112 97 119
-1.322288e+01 9.028156e+00 -1.366391e+01 46 53 61
-1.867941e+01 9.680611e+00 -1.432836e+01 74 79 81
-1.778424e+01 9.179279e+00 -1.258957e+01 108 126 138
-1.093167e+01 1.436031e+01 -2.447356e+01 72 69 96
-5.099382e-01 6.440677e-01 9.238860e+00 67 76 66
-5.556840e-01 6.805780e-01 9.143774e+00 67 72 76
-6.931641e-01 7.477363e-01 8.956104e+00 95 105 106
-1.692760e+00 8.192045e-01 8.643896e+00 129 141 163
-1.726814e+00 8.282222e-01 8.647406e+00 127 144 169
-4.009412e+00 1.104420e+00 8.458359e+00 106 98 76
-4.009412e+00 1.104420e+00 8.458359e+00 106 98 76
-4.078536e+00 1.119021e+00 8.430120e+00 99 90 60
-4.353057e+00 1.153200e+00 8.458400e+00 119 114 78
-4.333115e+00 1.189617e+00 8.247055e+00 137 130 111
-4.333115e+00 1.189617e+00 8.247055e+00 137 130 111
-4.378410e+00 1.197512e+00 8.281332e+00 126 115 95
-2.504047e+00 1.392488e+00 1.069565e+01 26 22 13
-2.434694e+00 1.423578e+00 1.057240e+01 58 59 51
-2.434694e+00 1.423578e+00 1.057240e+01 58 59 51
4.502815e+00 6.362494e+00 -6.425045e+00 17 17 19
-2.808758e+00 5.065383e-01 1.036216e+01 28 27 23
4.815423e+00 7.489457e+00 -5.048328e+00 44 51 62
-1.224919e+00 4.269027e-01 1.004380e+01 53 64 86
-1.224919e+00 4.269027e-01 1.004380e+01 53 64 86
7.891069e+00 5.151467e+00 -7.431440e+00 13 14 18
7.891069e+00 5.151467e+00 -7.431440e+00 13 14 18
-2.675808e+00 8.552635e-01 1.055102e+01 23 23 21
-3.881976e+00 7.610008e-01 9.707984e+00 119 118 123
-1.648116e-01 1.020497e+00 7.904229e+00 81 65 45
-3.666039e+00 1.041760e+00 8.791984e+00 192 191 195
-1.134467e+01 1.132505e+01 -2.147413e+01 154 149 168
-8.763994e-01 1.247117e+01 -2.449537e+01 252 253 255
2.713282e+00 -2.662230e+00 3.501213e+00 52 44 58
2.713282e+00 -2.662230e+00 3.501213e+00 52 44 58
-1.977169e+00 3.730738e-01 1.046579e+01 89 88 100
-2.792905e+00 5.547717e-01 1.039296e+01 102 91 64
-3.569710e+00 6.994141e-01 9.836674e+00 164 157 150
-2.044457e+00 5.038325e+00 -5.034641e+00 75 76 81
-1.361767e+00 6.131977e+00 -9.043275e+00 73 77 78
-9.377070e+00 1.572084e+01 -2.975501e+01 251 246 252
-8.101844e-01 -2.712248e+00 1.433334e+00 150 150 141
-4.330670e-01 3.276937e-01 1.010699e+01 153 152 149
-2.737530e+00 6.495722e-01 1.045716e+01 73 64 55
-2.737530e+00 6.495722e-01 1.045716e+01 73 64 55
-3.640254e+00 6.832347e-01 9.895715e+00 98 97 103
-3.566437e+00 8.562464e-01 9.368063e+00 183 184 191
-2.561099e+00 1.510226e+00 1.082645e+01 51 51 38
1.215312e+00 -2.835366e+00 4.050347e+00 139 136 130
-1.350189e+00 3.626648e-01 1.030518e+01 153 153 149
-1.293021e+00 5.605015e-01 9.720568e+00 72 86 105
-2.767614e+00 9.358529e-01 1.052459e+01 57 50 40
-3.508055e+00 8.288617e-01 9.404871e+00 105 115 128
-3.697170e+00 8.373784e-01 9.435033e+00 135 139 151
-2.357261e-01 9.338886e-01 8.224737e+00 118 115 104
-2.693707e+00 1.104923e+00 1.062490e+01 60 52 35
-2.679841e+00 1.298072e+00 1.069179e+01 38 32 29
-2.640077e+00 1.358984e+00 1.073384e+01 28 21 13
-2.640077e+00 1.358984e+00 1.073384e+01 28 21 13
-2.629412e+00 1.527633e+00 1.079385e+01 100 96 82
-2.688116e+00 1.551467e+00 1.076563e+01 94 92 77
-2.703735e+00 1.556201e+00 1.075654e+01 90 87 74
-2.601824e+00 1.573179e+00 1.082239e+01 20 16 12
-1.679060e+00 1.469848e+01 -2.868461e+01 117 169 197
-1.810035e+00 4.166597e-01 1.029507e+01 151 150 153
-4.070365e+00 5.588614e-01 1.040612e+01 55 52 40
-4.085961e+00 6.839885e-01 1.000497e+01 91 83 82
-3.945906e+00 7.878264e-01 9.631394e+00 157 152 131
-2.768940e+00 1.038682e+00 1.055942e+01 93 87 55
-3.385267e+00 9.842986e-01 8.890003e+00 116 126 136
-2.600862e+00 1.158528e+00 1.070048e+01 71 58 41
-3.938454e+00 1.110766e+00 8.646594e+00 177 189 205
-2.586048e+00 1.555469e+00 1.082670e+01 22 18 14
-2.593963e+00 1.562550e+00 1.082342e+01 20 15 11
-2.693798e+00 1.601973e+00 1.077348e+01 17 15 7
-2.672332e+00 1.595335e+00 1.082358e+01 72 73 63
-1.751266e+01 1.053109e+01 -1.320468e+01 92 89 82
-2.017391e+00 3.248990e-01 1.070439e+01 159 156 151
-1.558844e+01 6.081624e+00 -4.792427e+00 9 9 9
4.560382e+00 1.110059e+01 -2.159928e+01 95 96 80
-2.371252e+00 1.180536e+01 -2.342400e+01 174 205 254
-1.841788e+00 3.325084e-01 1.064863e+01 158 155 150
-2.486137e+00 5.672174e-01 1.024264e+01 27 28 22
-2.486137e+00 5.672174e-01 1.024264e+01 27 28 22
-2.176155e+01 8.978651e+00 -1.434684e+01 116 115 121
-1.590589e+01 6.479009e+00 -5.462817e+00 118 116 119
-2.430452e+00 9.454990e-01 1.246456e+01 85 83 64
-1.120134e+00 6.054478e-01 9.548731e+00 83 100 127
-1.948790e+01 1.110544e+01 -1.459265e+01 5 5 5
-3.739122e+00 6.931002e-01 9.817598e+00 119 117 116
-2.675190e+00 1.172552e+01 -2.312644e+01 27 46 63
-1.820281e+01 1.046649e+01 -1.164093e+01 46 45 49
-2.658355e+00 6.310312e-01 1.048876e+01 60 57 43
-2.431749e+00 1.350137e+00 1.053332e+01 64 61 48
-3.902232e+00 7.852887e-01 9.556886e+00 166 160 158
-1.560632e+01 5.944215e+00 -4.896667e+00 43 39 38
-1.082219e+01 5.939315e+00 -4.935396e+00 65 59 52
-1.526171e+00 4.220361e-01 1.022147e+01 51 51 78
-2.420879e+00 5.919303e-01 1.013126e+01 31 30 25
-3.890463e+00 5.603683e-01 1.033492e+01 162 159 152
-1.381402e+00 6.224962e-01 9.566074e+00 91 98 113
-2.433402e+00 8.544308e-01 1.030930e+01 60 52 38
-4.950443e+00 7.745960e-01 9.801094e+00 147 140 124
-2.673835e+00 1.591584e+00 1.078316e+01 104 98 87
-1.283078e+01 8.791807e+00 -1.281646e+01 44 50 55
-1.934694e+01 1.097450e+01 -1.459974e+01 64 70 68
-1.789685e+00 3.361426e-01 1.058705e+01 129 136 92
-1.754168e+00 -5.182104e-01 7.358198e+00 141 146 120
-1.126976e+00 5.504776e-01 9.708427e+00 105 118 136
-1.399674e+00 5.898632e-01 9.684747e+00 154 146 150
-2.517123e+00 7.844630e-01 1.044288e+01 45 40 32
-4.118518e+00 7.081558e-01 9.861386e+00 103 94 84
-2.415989e+00 8.892112e-01 1.027933e+01 67 56 39
-3.796560e+00 8.853420e-01 9.196415e+00 105 104 95
-1.889027e+00 1.082891e+00 8.184861e+00 184 183 194
-4.365229e+00 8.683153e-01 9.478925e+00 170 168 158
-3.905903e+00 3.381359e-01 1.091119e+01 27 27 27
-3.546239e+00 3.919043e-01 1.071774e+01 172 169 162
-2.305053e+00 6.197829e-01 9.859033e+00 100 81 68
-2.236305e+00 6.600954e-01 9.845600e+00 184 182 185
-2.744274e+00 1.881070e-01 1.125988e+01 159 154 143
-1.180644e+00 3.385245e-01 1.036782e+01 160 156 153
-1.221544e+00 3.811751e-01 1.016524e+01 161 157 154
-1.045755e+00 6.509823e-01 9.193010e+00 74 87 103
-1.545250e+00 6.796777e-01 9.397487e+00 95 112 134
-1.168911e+00 7.391196e-01 9.046586e+00 84 110 145
-7.032212e+00 1.653341e+00 7.237936e+00 30 30 28
-7.362883e+00 1.659538e+00 7.241480e+00 94 86 72
-7.362883e+00 1.659538e+00 7.241480e+00 94 86 72
-2.216814e+00 2.037315e-01 1.116771e+01 160 158 145
-3.484678e+00 4.037819e-01 1.070713e+01 104 98 82
-8.923296e-01 6.413152e-01 9.388310e+00 169 172 179
-1.144061e+00 7.747691e-01 8.928089e+00 180 183 190
-4.032115e+00 5.410421e-01 1.040449e+01 93 86 81
-1.084800e+00 8.036249e-01 8.863726e+00 140 139 144
-1.903640e+00 7.752519e-01 9.123893e+00 125 130 142
-1.075572e+00 3.118439e-01 1.038724e+01 155 154 149
-2.918437e+00 2.075770e-01 1.126552e+01 161 154 137
-1.145577e+00 3.442978e-01 1.029156e+01 160 156 153
-1.238792e+00 3.521883e-01 1.033061e+01 163 160 158
-1.263561e+00 3.524153e-01 1.028920e+01 162 158 155
-1.122353e+00 3.978444e-01 1.010624e+01 23 25 25
-1.553527e+00 4.494024e-01 1.013621e+01 56 55 70
-3.330381e+00 3.603850e-01 1.085113e+01 82 43 29
-1.449898e+00 6.170939e-01 9.566006e+00 53 73 108
-2.413136e+00 6.054032e-01 1.011911e+01 74 72 64
-2.413136e+00 6.054032e-01 1.011911e+01 74 72 64
-1.079451e+00 7.064036e-01 9.234261e+00 183 185 189
-2.555961e+00 7.194082e-01 1.051971e+01 91 82 70
-1.062669e+00 7.628398e-01 9.060016e+00 184 187 196
-3.734567e+00 6.090857e-01 1.005454e+01 123 121 112
-3.504503e+00 6.581579e-01 9.943775e+00 169 161 150
-2.549212e+00 8.977311e-01 1.057250e+01 90 83 75
-2.549212e+00 8.977311e-01 1.057250e+01 90 83 75
-3.953024e+00 6.738504e-01 9.906463e+00 168 160 149
-4.838121e+00 7.535849e-01 9.822484e+00 161 159 149
-2.529205e+00 1.232612e+00 1.069519e+01 22 22 20
-2.215486e+00 2.226039e-01 1.114905e+01 18 15 15
-2.884325e+00 1.999147e-01 1.127295e+01 30 23 30
-1.189344e+00 3.986353e-01 1.014498e+01 26 25 35
-1.227611e+00 4.119450e-01 1.013544e+01 29 28 34
-1.188112e+00 4.287487e-01 1.004463e+01 21 25 26
-1.285879e+00 4.543109e-01 1.000625e+01 29 29 33
-1.664074e+00 5.171703e-01 9.972622e+00 172 168 164
-1.305257e+00 5.390997e-01 9.714595e+00 32 45 61
-1.181216e+00 6.004229e-01 9.546151e+00 38 47 60
-1.323866e+00 6.128516e-01 9.540924e+00 59 71 95
-1.404486e+00 6.228990e-01 9.570927e+00 178 177 181
-1.016965e+00 6.830811e-01 9.273526e+00 177 176 181
-4.757688e+00 5.227686e-01 1.040308e+01 88 86 28
-2.615757e+00 8.750834e-01 1.061100e+01 120 108 88
-4.759472e+00 5.395985e-01 1.043992e+01 147 147 86
-3.903254e+00 6.443043e-01 9.972814e+00 78 78 66
-3.959424e+00 7.471404e-01 9.669291e+00 168 162 146
-1.353243e+00 1.019322e+00 8.268026e+00 115 159 187
-2.560215e+00 1.528570e+00 1.082825e+01 19 24 17
-2.243849e+00 1.701494e+00 1.026324e+01 20 22 19
-2.968969e+00 1.495743e-01 1.141090e+01 38 29 31
-1.061190e+00 3.006003e-01 1.036090e+01 152 151 149
-1.084521e+00 3.283973e-01 1.032880e+01 155 155 147
-1.084521e+00 3.283973e-01 1.032880e+01 155 155 147
-1.459850e+00 4.714489e-01 1.004860e+01 25 20 26
-3.860934e+00 3.213843e-01 1.099003e+01 40 42 31
-1.568161e+00 5.157361e-01 9.925919e+00 26 26 24
-1.053830e+00 5.651908e-01 9.579937e+00 147 148 153
-1.035386e+00 5.769207e-01 9.574788e+00 99 102 112
-1.405404e+00 5.735046e-01 9.710610e+00 137 66 65
-1.075165e+00 6.151824e-01 9.454828e+00 50 65 88
-2.506205e+00 5.546213e-01 1.032800e+01 21 23 22
-3.642828e+00 4.354869e-01 1.064337e+01 173 170 161
-1.043489e+00 6.857344e-01 9.240159e+00 84 102 120
-4.338016e+00 3.916263e-01 1.081015e+01 46 48 35
-4.369912e+00 4.455475e-01 1.060669e+01 68 54 44
-4.369912e+00 4.455475e-01 1.060669e+01 68 54 44
-1.282190e+00 7.760672e-01 8.937621e+00 90 104 131
-1.007367e+00 8.359542e-01 8.642032e+00 100 116 134
-3.483746e+00 6.463987e-01 9.911142e+00 169 161 150
-2.048323e+00 8.057651e-01 9.166477e+00 103 121 133
-4.795500e+00 5.407077e-01 1.044673e+01 75 74 28
-4.795500e+00 5.407077e-01 1.044673e+01 75 74 28
-3.867998e+00 7.271754e-01 9.712277e+00 168 160 148
-3.867998e+00 7.271754e-01 9.712277e+00 168 160 148
-3.852175e+00 7.270074e-01 9.674737e+00 94 89 84
-1.126131e+00 1.050059e+00 8.112934e+00 124 132 125
-1.126131e+00 1.050059e+00 8.112934e+00 124 132 125
-1.799512e+00 1.062900e+00 8.260224e+00 134 140 154
-1.797534e+00 1.062856e+00 8.281469e+00 134 140 154
-4.314714e+00 1.153172e+00 8.462264e+00 154 140 114
-7.158764e+00 1.637181e+00 7.263839e+00 108 92 76
-6.865257e+00 1.818325e+00 6.497621e+00 36 37 33
-6.798880e+00 1.812167e+00 6.578893e+00 36 37 33
-7.013552e+00 1.826187e+00 6.548695e+00 109 97 83
-7.462682e+00 1.763155e+00 6.941808e+00 92 83 73
-7.449665e+00 1.762133e+00 6.955242e+00 92 83 73
-3.026593e+00 1.198337e-01 1.147465e+01 147 149 128
-3.079588e+00 1.194537e-01 1.147967e+01 48 39 41
-3.035067e+00 1.259555e-01 1.146567e+01 63 50 68
-2.228273e+00 2.209875e-01 1.116952e+01 26 20 28
-2.228273e+00 2.209875e-01 1.116952e+01 26 20 28
-3.092213e+00 1.234899e-01 1.146358e+01 142 149 119
-3.076342e+00 1.312417e-01 1.144905e+01 146 148 125
-1.931636e+00 2.444972e-01 1.098291e+01 186 187 173
-2.974031e+00 1.491640e-01 1.138697e+01 143 148 117
-9.698270e-01 3.045851e-01 1.036866e+01 47 37 43
-1.078312e+00 3.276058e-01 1.032663e+01 154 153 143
-2.129065e+00 2.869673e-01 1.090237e+01 169 166 150
-1.391609e+00 3.163933e-01 1.047280e+01 39 36 61
-2.175193e+00 2.921574e-01 1.090158e+01 34 27 35
-1.812907e+00 3.396033e-01 1.059628e+01 186 187 172
-1.788840e+00 3.427625e-01 1.058136e+01 125 118 111
-1.236087e+00 5.261038e-01 9.774455e+00 39 40 48
-1.141455e+00 5.468994e-01 9.707763e+00 47 62 74
-1.395220e+00 5.579790e-01 9.750100e+00 164 159 156
-1.527924e+00 5.619183e-01 9.795712e+00 69 73 79
-1.421667e+00 6.135543e-01 9.598834e+00 43 68 101
-1.539410e+00 6.348958e-01 9.553125e+00 183 183 186
-1.222173e+00 7.077686e-01 9.258541e+00 89 109 141
-4.684314e+00 4.524512e-01 1.056580e+01 49 44 28
-2.560177e+00 7.781513e-01 1.051572e+01 109 83 60
-2.550293e+00 8.507743e-01 1.053761e+01 44 35 26
-4.761044e+00 5.263785e-01 1.047058e+01 147 148 129
-3.495227e+00 6.654848e-01 9.834613e+00 166 163 147
-4.745520e+00 5.510805e-01 1.042079e+01 105 98 65
-1.756154e+00 8.636714e-01 8.876846e+00 142 158 182
-3.782609e+00 6.989914e-01 9.789379e+00 109 109 109
-1.166012e+00 9.844382e-01 8.315404e+00 187 196 208
-3.908727e+00 7.290377e-01 9.728415e+00 128 124 122
-1.121026e+00 1.005717e+00 8.201632e+00 110 137 155
-2.474057e+00 1.086255e+00 1.052574e+01 100 89 76
-2.421377e+00 1.068110e+00 8.428953e+00 174 184 193
-4.567536e+00 8.621716e-01 9.457865e+00 88 76 42
-5.843027e+00 8.272413e-01 9.463810e+00 65 56 46
-2.497061e+00 1.338672e+00 1.069919e+01 47 43 34
-2.497061e+00 1.338672e+00 1.069919e+01 47 43 34
-2.461960e+00 1.383293e+00 1.064251e+01 68 65 57
-2.365568e+00 1.416833e+00 1.042102e+01 56 53 38
-2.360170e+00 1.415692e+00 1.043606e+01 56 53 38
-2.508069e+00 1.387833e+00 1.072021e+01 72 64 53
-2.502449e+00 1.387295e+00 1.073255e+01 72 64 53
-2.461271e+00 1.487591e+00 1.066644e+01 49 46 35
-2.716681e+00 1.490473e+00 1.071760e+01 67 57 45
-2.427440e+00 1.529959e+00 1.062513e+01 59 59 43
-2.427440e+00 1.529959e+00 1.062513e+01 59 59 43
-2.430402e+00 1.573831e+00 1.065909e+01 52 48 37
-2.409185e+00 1.592747e+00 1.060288e+01 64 62 53
-2.297582e+00 1.682819e+00 1.037649e+01 61 58 46
-1.698573e+00 2.258962e-01 1.095077e+01 164 160 148
-2.150171e+00 2.152339e-01 1.117707e+01 147 151 129
-2.321615e+00 2.018086e-01 1.123949e+01 58 47 74
-2.321615e+00 2.018086e-01 1.123949e+01 58 47 74
-3.063105e+00 1.203658e-01 1.148406e+01 142 143 128
-2.573215e+00 2.295163e-01 1.117445e+01 68 56 80
-1.016624e+00 3.170297e-01 1.034572e+01 38 37 37
-1.120643e+00 3.092613e-01 1.039836e+01 46 40 70
-2.950333e+00 1.976168e-01 1.126428e+01 56 46 58
-1.141890e+00 3.142756e-01 1.039205e+01 42 35 48
-1.987538e+00 3.041246e-01 1.078105e+01 191 190 176
-1.119739e+00 3.418347e-01 1.029382e+01 39 33 54
-1.119739e+00 3.418347e-01 1.029382e+01 39 33 54
-2.162430e+00 2.990433e-01 1.086408e+01 52 43 83
-1.938998e+00 3.289736e-01 1.066332e+01 127 117 108
-1.556216e+00 3.556931e-01 1.044934e+01 48 39 63
-1.171123e+00 3.973699e-01 1.014308e+01 154 157 133
-1.370223e+00 4.057791e-01 1.019651e+01 36 29 50
-1.453147e+00 4.186832e-01 1.022457e+01 34 28 34
-1.533806e+00 4.182703e-01 1.024910e+01 36 32 56
-1.742203e+00 4.644193e-01 1.017055e+01 170 164 151
-3.276249e+00 3.717236e-01 1.081195e+01 113 103 112
-1.031976e+00 5.511597e-01 9.666762e+00 106 108 111
-1.167748e+00 5.350010e-01 9.679437e+00 63 71 74
-1.214138e+00 5.417830e-01 9.736792e+00 96 101 95
-1.234891e+00 5.488642e-01 9.726020e+00 38 42 51
-1.545918e+00 5.314190e-01 9.912807e+00 40 40 51
-1.213967e+00 5.537449e-01 9.721354e+00 44 48 54
-1.019485e+00 5.659070e-01 9.596579e+00 111 117 116
-1.725079e+00 5.186568e-01 9.982407e+00 47 42 66
-9.379241e-01 5.839392e-01 9.527720e+00 165 166 157
-1.181105e+00 5.841624e-01 9.609571e+00 117 119 110
-1.122688e+00 6.123951e-01 9.517902e+00 39 53 80
-1.112000e+00 6.322185e-01 9.457388e+00 70 77 90
-1.468917e+00 6.103134e-01 9.605895e+00 48 67 103
-2.485812e+00 5.755473e-01 1.024741e+01 27 24 22
-1.339696e+00 6.654875e-01 9.401770e+00 161 163 167
-4.316164e+00 4.073028e-01 1.077947e+01 33 33 32
-1.271206e+00 6.808220e-01 9.307946e+00 146 150 169
-1.547462e+00 6.663158e-01 9.471260e+00 98 113 136
-1.117495e+00 7.911053e-01 8.925345e+00 142 141 149
-2.500914e+00 8.320760e-01 1.044335e+01 108 84 55
-2.452082e+00 8.563139e-01 1.035155e+01 115 90 69
-3.404209e+00 6.761458e-01 9.866376e+00 167 159 150
-3.575189e+00 6.574251e-01 9.901775e+00 84 82 81
-2.397347e+00 8.856749e-01 1.028931e+01 115 93 66
-1.433441e+00 9.144975e-01 8.618198e+00 115 136 165
-1.433311e+00 9.124317e-01 8.618119e+00 115 136 165
-2.319723e+00 9.171742e-01 1.011853e+01 70 58 54
-2.319723e+00 9.171742e-01 1.011853e+01 70 58 54
-1.338696e+00 9.222931e-01 8.582820e+00 132 148 176
-2.278253e+00 9.477863e-01 1.000961e+01 70 56 45
-2.486577e+00 9.736955e-01 1.051447e+01 68 54 43
-3.529422e+00 8.034626e-01 9.464401e+00 176 170 159
-3.690885e+00 8.358716e-01 9.373794e+00 175 169 161
-4.863352e+00 7.260063e-01 9.842697e+00 74 79 49
-2.540898e+00 1.084893e+00 1.065526e+01 73 56 42
-2.540898e+00 1.084893e+00 1.065526e+01 73 56 42
-2.540898e+00 1.084893e+00 1.065526e+01 73 56 42
-9.822797e-01 1.231346e+00 7.548909e+00 132 135 158
-2.615509e+00 1.117125e+00 1.067706e+01 64 55 48
-4.770733e+00 8.701636e-01 9.450226e+00 168 164 153
-5.888934e+00 7.920673e-01 9.546894e+00 107 96 78
-5.573863e+00 8.306044e-01 9.483010e+00 114 102 74
-2.459956e+00 1.184557e+00 1.054555e+01 70 57 42
-2.353868e+00 1.213700e+00 1.033985e+01 71 53 40
-5.886197e+00 8.441271e-01 9.416649e+00 113 101 78
-2.277641e+00 1.235265e+00 1.013177e+01 60 51 37
-2.277641e+00 1.235265e+00 1.013177e+01 60 51 37
-4.729963e+00 9.891425e-01 9.040615e+00 116 118 49
-5.912977e+00 8.680325e-01 9.467502e+00 58 47 33
-6.041303e+00 8.744743e-01 9.345377e+00 116 105 83
-5.852457e+00 8.988020e-01 9.388983e+00 113 103 78
-2.378007e+00 1.267233e+00 1.039090e+01 72 57 42
-6.090921e+00 9.157264e-01 9.361749e+00 119 103 87
-2.503119e+00 1.262527e+00 1.064959e+01 70 67 58
-2.478719e+00 1.271460e+00 1.062963e+01 55 52 43
-6.193331e+00 9.414321e-01 9.192478e+00 113 100 84
-2.519244e+00 1.277642e+00 1.070339e+01 87 84 72
-2.519244e+00 1.277642e+00 1.070339e+01 87 84 72
-2.444843e+00 1.291024e+00 1.054725e+01 47 43 31
-2.440436e+00 1.291060e+00 1.055819e+01 47 43 31
-6.106498e+00 9.726985e-01 9.102973e+00 115 106 80
-2.497928e+00 1.290843e+00 1.065203e+01 25 20 7
-2.497928e+00 1.290843e+00 1.065203e+01 25 20 7
-2.593719e+00 1.293285e+00 1.074534e+01 29 30 28
-2.520093e+00 1.330534e+00 1.071333e+01 58 52 40
-2.430658e+00 1.350484e+00 1.053477e+01 58 54 43
-2.317192e+00 1.394439e+00 1.030348e+01 60 53 37
-2.382103e+00 1.378369e+00 1.046137e+01 56 54 39
-2.429936e+00 1.373183e+00 1.058236e+01 58 54 43
-2.382948e+00 1.403774e+00 1.045135e+01 61 61 49
-2.388241e+00 1.401675e+00 1.047528e+01 67 63 54
-6.690529e+00 1.180237e+00 8.571747e+00 112 100 83
-2.322848e+00 1.438249e+00 1.036477e+01 63 58 48
-2.490162e+00 1.416673e+00 1.071758e+01 75 73 61
-2.490162e+00 1.416673e+00 1.071758e+01 75 73 61
-2.367633e+00 1.484316e+00 1.047924e+01 59 54 44
-2.509501e+00 1.450042e+00 1.074533e+01 19 19 19
-2.506801e+00 1.449556e+00 1.075118e+01 19 19 19
-2.422809e+00 1.481057e+00 1.058838e+01 43 41 31
-2.422809e+00 1.481057e+00 1.058838e+01 43 41 31
-2.509681e+00 1.458557e+00 1.076547e+01 53 46 37
-2.258118e+00 1.527834e+00 1.025625e+01 64 61 49
-2.482308e+00 1.473484e+00 1.070901e+01 51 50 40
-2.469454e+00 1.478082e+00 1.070127e+01 67 65 53
-2.469454e+00 1.478082e+00 1.070127e+01 67 65 53
-2.584401e+00 1.461184e+00 1.079925e+01 41 38 22
-2.584401e+00 1.461184e+00 1.079925e+01 41 38 22
-2.487090e+00 1.495637e+00 1.073263e+01 79 75 64
-2.487090e+00 1.495637e+00 1.073263e+01 79 75 64
-2.460334e+00 1.535895e+00 1.069239e+01 45 41 30
-2.460334e+00 1.535895e+00 1.069239e+01 45 41 30
-2.448951e+00 1.542338e+00 1.067363e+01 53 50 41
-2.448951e+00 1.542338e+00 1.067363e+01 53 50 41
-7.084820e+00 1.629691e+00 7.291806e+00 91 83 65
-2.399721e+00 1.573234e+00 1.056839e+01 69 65 53
-2.284409e+00 1.614577e+00 1.033952e+01 62 58 47
-2.442824e+00 1.573033e+00 1.066186e+01 63 63 53
-2.303382e+00 1.631844e+00 1.037545e+01 59 55 45
-2.303382e+00 1.631844e+00 1.037545e+01 59 55 45
-2.393937e+00 1.599926e+00 1.057435e+01 68 69 54
-2.393937e+00 1.599926e+00 1.057435e+01 68 69 54
-2.725430e+00 1.557725e+00 1.072982e+01 23 26 25
-2.267811e+00 1.647522e+00 1.031950e+01 59 55 44
-2.467396e+00 1.584584e+00 1.072270e+01 70 67 55
-2.248494e+00 1.658247e+00 1.028653e+01 59 52 46
-2.248494e+00 1.658247e+00 1.028653e+01 59 52 46
-2.340211e+00 1.630371e+00 1.047156e+01 44 40 29
-2.608460e+00 1.566244e+00 1.081113e+01 71 67 55
-2.315291e+00 1.643321e+00 1.043506e+01 59 55 45
-2.315291e+00 1.643321e+00 1.043506e+01 59 55 45
-2.274076e+00 1.677600e+00 1.030759e+01 53 49 38
-2.198212e+00 1.978997e-01 1.122269e+01 133 141 90
-2.396816e+00 1.949667e-01 1.126480e+01 81 67 89
-2.363884e+00 2.023952e-01 1.124364e+01 134 138 113
-2.450427e+00 2.078834e-01 1.124034e+01 78 65 91
-2.077643e+00 2.652182e-01 1.097366e+01 80 70 100
-2.024308e+00 2.700963e-01 1.092596e+01 116 104 132
-1.883599e+00 2.850857e-01 1.082182e+01 130 120 130
-2.139183e+00 2.855392e-01 1.091436e+01 160 160 133
-2.133111e+00 2.926149e-01 1.087522e+01 64 54 89
-1.771517e+00 3.153714e-01 1.066026e+01 110 100 104
-1.343354e+00 3.646538e-01 1.031080e+01 159 160 139
-1.815537e+00 3.455591e-01 1.057504e+01 137 129 119
-1.592647e+00 3.808894e-01 1.035658e+01 53 48 74
-2.909130e+00 2.971624e-01 1.100097e+01 142 137 133
-1.446781e+00 4.234772e-01 1.020421e+01 40 38 57
-1.557691e+00 4.445575e-01 1.015050e+01 162 161 142
-1.865284e+00 4.304985e-01 1.031853e+01 89 88 120
-1.583698e+00 4.617163e-01 1.011291e+01 43 41 64
-1.813477e+00 4.723235e-01 1.015858e+01 65 63 71
-1.696521e+00 4.905198e-01 1.006299e+01 58 55 70
-1.754712e+00 4.913740e-01 1.007967e+01 48 36 38
-1.236119e+00 5.409746e-01 9.760520e+00 121 122 111
-9.736504e-01 5.663939e-01 9.566703e+00 60 78 94
-1.047869e+00 5.617043e-01 9.608988e+00 132 129 125
-1.084937e+00 5.628505e-01 9.617627e+00 95 103 101
-1.152409e+00 5.687805e-01 9.657916e+00 53 49 56
-1.325939e+00 5.557608e-01 9.725656e+00 47 62 75
-8.162606e-01 5.919077e-01 9.411290e+00 161 169 160
-1.311760e+00 5.741659e-01 9.702610e+00 68 55 54
-1.401190e+00 5.709145e-01 9.733213e+00 60 64 61
-1.441905e+00 5.949000e-01 9.664961e+00 145 77 86
-1.307960e+00 6.129223e-01 9.589071e+00 53 64 81
-9.220622e-01 6.417880e-01 9.331133e+00 163 166 161
-9.238347e-01 6.453105e-01 9.346830e+00 163 166 161
-9.811925e-01 6.404892e-01 9.365594e+00 61 81 110
-1.167120e+00 6.343598e-01 9.468443e+00 48 67 95
-9.959838e-01 6.599200e-01 9.343712e+00 112 116 131
-3.605571e+00 4.432203e-01 1.062734e+01 180 175 176
-1.369374e+00 6.361876e-01 9.507449e+00 130 132 144
-2.475434e+00 5.820718e-01 1.023601e+01 27 24 24
-2.467848e+00 5.861543e-01 1.022358e+01 26 22 25
-1.229421e+00 6.591996e-01 9.377839e+00 120 128 135
-2.417127e+00 6.258013e-01 1.015866e+01 101 76 58
-1.110369e+00 6.948118e-01 9.235209e+00 97 115 129
-2.390977e+00 6.405632e-01 1.017572e+01 101 76 61
-2.397986e+00 7.426895e-01 1.017705e+01 73 55 45
-2.397986e+00 7.426895e-01 1.017705e+01 73 55 45
-2.533808e+00 7.992674e-01 1.048514e+01 54 42 35
-2.477833e+00 8.032782e-01 1.037113e+01 83 67 64
-2.477833e+00 8.032782e-01 1.037113e+01 83 67 64
-3.648408e+00 5.950222e-01 1.012033e+01 161 156 144
-2.425466e+00 8.316278e-01 1.029050e+01 59 53 48
-4.202432e+00 5.679015e-01 1.029546e+01 163 165 148
-2.516313e+00 8.413320e-01 1.046889e+01 65 51 38
-1.834059e+00 7.970278e-01 9.094109e+00 137 140 148
-4.831749e+00 5.290083e-01 1.039312e+01 149 144 125
-2.443393e+00 8.753151e-01 1.032769e+01 71 63 53
-2.343881e+00 9.049643e-01 1.017820e+01 65 51 38
-2.308160e+00 9.280810e-01 1.006176e+01 67 58 51
-2.328359e+00 9.667242e-01 1.016684e+01 55 42 33
-2.328359e+00 9.667242e-01 1.016684e+01 55 42 33
-1.292381e+00 1.002883e+00 8.320057e+00 184 194 205
-1.351141e+00 9.972381e-01 8.321295e+00 189 195 201
-1.351241e+00 1.012654e+00 8.315493e+00 93 132 168
-1.336638e+00 1.016698e+00 8.274637e+00 100 132 155
-2.500009e+00 1.041066e+00 1.056250e+01 52 43 35
-2.500009e+00 1.041066e+00 1.056250e+01 52 43 35
-2.289269e+00 1.119524e+00 1.013112e+01 68 60 41
-2.318842e+00 1.173697e+00 1.022811e+01 71 54 39
-2.318842e+00 1.173697e+00 1.022811e+01 71 54 39
-1.521863e+00 1.247287e+00 7.614168e+00 135 136 145
-1.521863e+00 1.247287e+00 7.614168e+00 135 136 145
-5.880000e+00 7.826852e-01 9.577458e+00 65 56 47
-2.526887e+00 1.183921e+00 1.065387e+01 77 63 50
-5.652810e+00 8.407595e-01 9.420319e+00 71 64 51
-2.659162e+00 1.175071e+00 1.066429e+01 69 60 50
-2.409369e+00 1.210687e+00 1.046426e+01 65 52 42
-5.922919e+00 8.610477e-01 9.409591e+00 107 102 82
-2.587788e+00 1.220378e+00 1.072905e+01 101 95 73
-5.325133e+00 9.772670e-01 9.042425e+00 103 93 71
-5.497609e+00 9.897790e-01 8.977097e+00 122 108 85
-6.151091e+00 9.271963e-01 9.202515e+00 109 103 79
-5.943719e+00 9.931142e-01 9.055679e+00 115 107 88
-2.407189e+00 1.310346e+00 1.049664e+01 43 38 26
-2.407189e+00 1.310346e+00 1.049664e+01 43 38 26
-2.389899e+00 1.322839e+00 1.044505e+01 77 72 61
-2.389899e+00 1.322839e+00 1.044505e+01 77 72 61
-6.033018e+00 1.023954e+00 9.036754e+00 116 104 83
-2.461148e+00 1.330338e+00 1.062549e+01 56 53 43
-2.461148e+00 1.330338e+00 1.062549e+01 56 53 43
-2.321842e+00 1.361505e+00 1.033566e+01 65 61 51
-2.268684e+00 1.426044e+00 1.018717e+01 75 69 54
-2.268684e+00 1.426044e+00 1.018717e+01 75 69 54
-6.741563e+00 1.152541e+00 8.759769e+00 113 99 80
-2.333809e+00 1.428086e+00 1.039686e+01 63 61 49
-2.391891e+00 1.425159e+00 1.048371e+01 51 50 39
-2.281985e+00 1.462065e+00 1.027514e+01 66 63 52
-2.746886e+00 1.400012e+00 1.066802e+01 105 89 71
-2.684429e+00 1.424929e+00 1.072323e+01 64 60 50
-2.404174e+00 1.466426e+00 1.054367e+01 52 49 40
-2.630344e+00 1.433395e+00 1.076390e+01 68 62 54
-2.307918e+00 1.497403e+00 1.035175e+01 57 56 48
-2.675684e+00 1.481244e+00 1.074351e+01 47 42 29
-6.915991e+00 1.549611e+00 7.511999e+00 107 90 82
-2.297768e+00 1.583461e+00 1.033743e+01 54 51 42
-2.386034e+00 1.559301e+00 1.052986e+01 48 44 38
-6.792850e+00 1.644419e+00 7.181074e+00 106 90 74
-2.418175e+00 1.582743e+00 1.063278e+01 57 53 44
-2.351652e+00 1.626861e+00 1.048443e+01 65 61 50
-2.363276e+00 1.646825e+00 1.052728e+01 53 53 44
-2.287023e+00 1.714975e+00 1.036598e+01 26 32 29
-2.192485e+00 2.014678e-01 1.122053e+01 61 51 52
-1.682792e+00 3.179697e-01 1.063619e+01 92 84 96
-1.102798e+00 3.408461e-01 1.029507e+01 64 59 75
-1.906005e+00 2.005814e-01 1.034377e+01 150 140 139
-1.882522e+00 4.334604e-01 1.031209e+01 98 97 104
-1.393020e+00 5.400478e-01 9.796701e+00 127 136 126
-1.163990e+00 5.590565e-01 9.646902e+00 107 109 95
-1.199855e+00 5.792531e-01 9.600863e+00 76 77 90
-1.017209e+00 6.156875e-01 9.487585e+00 80 89 98
-1.366397e+00 5.870626e-01 9.654599e+00 89 96 102
-1.135338e+00 6.044615e-01 9.510736e+00 76 84 92
-2.441717e+00 5.790089e-01 1.017871e+01 28 28 23
-2.429475e+00 5.857102e-01 1.015486e+01 26 26 23
-2.447087e+00 5.998237e-01 1.023228e+01 31 29 30
-2.415842e+00 5.941313e-01 1.016249e+01 28 25 20
-3.678860e+00 6.029419e-01 1.007830e+01 158 153 140
-4.169674e+00 5.669629e-01 1.029328e+01 86 77 98
-1.921581e+00 7.843552e-01 9.188083e+00 148 156 162
-2.530604e+00 8.587197e-01 1.053565e+01 101 85 68
-2.530604e+00 8.587197e-01 1.053565e+01 101 85 68
-3.394380e+00 6.718844e-01 9.878477e+00 167 160 150
-2.513586e+00 8.705464e-01 1.048617e+01 58 41 27
-4.794324e+00 5.289405e-01 1.038593e+01 135 135 51
-4.308374e+00 5.931500e-01 1.022758e+01 163 152 133
-4.308374e+00 5.931500e-01 1.022758e+01 163 152 133
-1.356835e+00 8.972837e-01 8.652055e+00 119 151 176
-4.900297e+00 5.569449e-01 1.031229e+01 121 115 98
-1.182583e+00 9.826702e-01 8.303287e+00 107 146 174
-1.091962e+00 9.946814e-01 8.266282e+00 137 158 179
-1.172331e+00 1.007792e+00 8.261473e+00 174 181 199
-2.320653e+00 9.003604e-01 8.936927e+00 197 203 218
-1.127544e+00 1.031454e+00 8.193905e+00 180 182 183
-1.120654e+00 1.040419e+00 8.173472e+00 124 137 126
-3.973859e+00 7.726358e-01 9.573101e+00 167 160 142
-1.286914e+00 1.048580e+00 8.168701e+00 125 147 161
-1.837179e+00 1.079556e+00 8.252472e+00 117 133 145
-1.955619e+00 1.098988e+00 8.217536e+00 106 116 133
-1.977049e+00 1.114293e+00 8.154705e+00 108 123 147
-2.049628e+00 1.132907e+00 8.153194e+00 153 177 213
-2.509411e+00 1.084034e+00 8.358713e+00 194 194 209
-1.117850e+00 1.269929e+00 7.433693e+00 178 178 180
-2.483690e+00 1.174707e+00 1.060066e+01 98 80 58
-2.483690e+00 1.174707e+00 1.060066e+01 98 80 58
-3.563471e-01 1.298340e+00 -1.870753e+01 178 176 180
-1.564499e+00 1.311591e+00 7.347680e+00 165 173 194
-4.272077e+00 1.038565e+00 8.805727e+00 168 168 157
-4.278175e+00 1.151106e+00 8.456491e+00 124 112 78
-5.370601e+00 1.065325e+00 8.706857e+00 116 107 85
-5.370601e+00 1.065325e+00 8.706857e+00 116 107 85
-5.301222e+00 1.130327e+00 8.486244e+00 85 75 47
-5.301222e+00 1.130327e+00 8.486244e+00 85 75 47
-5.905898e+00 1.073416e+00 8.799933e+00 116 105 85
-4.867798e+00 1.242501e+00 8.124538e+00 105 98 80
-9.638435e-01 1.716191e+00 5.843543e+00 85 79 65
-1.117882e+00 1.747605e+00 5.804087e+00 96 81 53
-6.046813e+00 1.279611e+00 8.169111e+00 79 72 51
-2.659662e+00 1.411476e+00 1.073142e+01 21 21 15
-2.396374e+00 1.465709e+00 1.052471e+01 54 55 43
-6.832021e+00 1.315498e+00 8.207678e+00 114 106 87
-2.461939e+00 1.508208e+00 1.068774e+01 67 65 53
-2.471797e+00 1.529415e+00 1.070516e+01 67 62 52
-2.469655e+00 1.528143e+00 1.070995e+01 67 62 52
-8.037173e+00 1.530050e+00 7.618355e+00 95 80 78
-2.405986e+00 1.566178e+00 1.059080e+01 62 56 41
-2.657492e+00 1.547184e+00 1.077532e+01 26 25 21
-2.239414e+00 1.744651e+00 1.026422e+01 28 26 13
-1.060616e+00 2.977175e-01 1.041860e+01 74 74 50
-1.308211e+00 4.358348e-01 1.007311e+01 24 26 18
-1.566395e+00 4.626680e-01 1.012772e+01 72 65 78
-3.362169e+00 3.344756e-01 1.091203e+01 154 155 123
-1.730412e+00 4.911216e-01 1.008370e+01 157 153 141
-1.396559e+00 5.351734e-01 9.852764e+00 95 102 94
-1.672648e+00 5.216330e-01 9.964393e+00 155 162 123
-1.157429e+00 5.740963e-01 9.637767e+00 120 85 83
-1.110886e+00 5.823075e-01 9.595196e+00 116 93 107
-1.239684e+00 5.769659e-01 9.666534e+00 107 51 48
-1.086366e+00 5.916196e-01 9.580559e+00 83 92 105
-1.140570e+00 5.896729e-01 9.572800e+00 92 102 104
-1.444771e+00 5.793392e-01 9.722167e+00 88 90 87
-1.451654e+00 5.836556e-01 9.700830e+00 134 130 127
-1.435478e+00 6.457436e-01 9.510602e+00 160 159 169
-1.504225e+00 6.415534e-01 9.540882e+00 176 175 180
-1.320058e+00 6.732559e-01 9.392968e+00 147 154 171
-1.102982e+00 7.088637e-01 9.186254e+00 87 111 146
-1.588642e+00 7.056339e-01 9.430390e+00 101 117 139
-1.807264e+00 7.160187e-01 9.378013e+00 165 166 168
-4.677232e+00 4.710806e-01 1.053390e+01 103 106 60
-2.465405e+00 8.346476e-01 1.040763e+01 49 35 25
-2.465405e+00 8.346476e-01 1.040763e+01 49 35 25
-2.552847e+00 8.496145e-01 1.056983e+01 99 84 67
-3.742350e+00 6.189352e-01 1.004957e+01 157 148 134
-4.848865e+00 5.040884e-01 1.044400e+01 80 75 28
-1.852715e+00 8.046106e-01 9.108940e+00 115 126 140
-3.407429e+00 6.637874e-01 9.875075e+00 76 77 77
-3.775334e+00 6.557965e-01 9.929940e+00 55 55 56
-2.549079e+00 8.998953e-01 1.058367e+01 38 33 27
-2.728095e+00 8.870267e-01 1.053801e+01 121 108 95
-3.623763e+00 6.949589e-01 9.803124e+00 75 66 74
-1.448528e+00 9.131093e-01 8.634646e+00 179 192 210
-1.465766e+00 9.175318e-01 8.621628e+00 167 176 196
-2.362117e+00 9.456183e-01 1.023710e+01 97 83 63
-2.362117e+00 9.456183e-01 1.023710e+01 97 83 63
-3.858590e+00 7.161392e-01 9.762957e+00 76 78 71
-4.878608e+00 6.185388e-01 1.016146e+01 110 88 90
-3.553272e+00 7.731188e-01 9.545085e+00 172 167 153
-2.372025e+00 9.044131e-01 8.928396e+00 133 146 169
-9.954496e-01 1.046561e+00 8.080673e+00 132 156 162
-3.950748e+00 7.627469e-01 9.650021e+00 152 144 130
-1.335943e+00 1.028204e+00 8.258524e+00 171 177 182
-5.078999e+00 6.539955e-01 1.006023e+01 98 85 53
-1.190618e+00 1.057875e+00 8.100584e+00 128 136 147
-1.082323e+00 1.070881e+00 8.041389e+00 132 149 155
-1.115114e+00 1.080965e+00 8.033809e+00 131 153 161
-3.761640e+00 8.168997e-01 9.432973e+00 159 155 143
-3.761640e+00 8.168997e-01 9.432973e+00 159 155 143
-3.798607e+00 8.158510e-01 9.395272e+00 161 159 145
-1.145281e+00 1.090206e+00 8.016440e+00 127 149 160
-1.145281e+00 1.090206e+00 8.016440e+00 127 149 160
-2.028083e+00 1.017346e+00 8.434701e+00 105 114 131
-1.772459e+00 1.047119e+00 8.317724e+00 126 140 152
-4.911290e+00 7.251369e-01 9.868436e+00 150 153 110
-1.213576e+00 1.111181e+00 7.985105e+00 148 169 181
-2.197229e+00 1.010006e+00 8.513072e+00 190 191 199
-1.776785e+00 1.056120e+00 8.298572e+00 183 190 193
-1.792822e+00 1.058095e+00 8.275521e+00 113 121 134
-2.052682e+00 1.032438e+00 8.441902e+00 183 190 198
-1.779050e+00 1.065279e+00 8.271920e+00 136 148 162
-4.833760e+00 7.515512e-01 9.862951e+00 116 118 96
-1.807986e+00 1.068399e+00 8.251714e+00 115 129 150
-1.098634e+00 1.152570e+00 7.832004e+00 152 153 171
-2.274038e+00 1.035584e+00 8.483572e+00 121 134 144
-1.853669e+00 1.082473e+00 8.226064e+00 186 192 203
-2.387516e+00 1.052171e+00 8.460825e+00 118 129 143
-1.239230e+00 1.230144e+00 7.618692e+00 131 129 131
-2.504232e+00 1.259811e+00 1.066970e+01 25 22 14
-2.418318e+00 1.352452e+00 1.054260e+01 21 20 8
-2.285029e+00 1.408965e+00 1.022314e+01 78 74 63
-2.410488e+00 1.412756e+00 1.054908e+01 20 20 12
-2.455193e+00 1.415909e+00 1.062402e+01 21 19 6
-2.446645e+00 1.493096e+00 1.063668e+01 21 21 10
-5.705864e+00 1.663977e+00 6.899884e+00 76 70 59
-2.347829e+00 1.575117e+00 1.047049e+01 20 21 13
4.352483e+00 5.400373e+00 -7.234379e+00 8 8 8
8.451387e+00 6.101196e+00 -8.113701e+00 18 22 26
8.020299e+00 7.364090e+00 -6.259547e+00 44 27 34
-1.521372e+00 1.703085e-01 1.102554e+01 148 146 141
-2.726301e+00 4.875964e-01 1.042673e+01 20 19 19
4.998555e+00 1.124288e+01 -1.440932e+01 252 254 250
-2.615484e+00 1.386459e+00 1.075331e+01 18 19 16
8.070178e+00 6.202611e+00 -7.024216e+00 255 254 251
3.856429e+00 1.336664e+01 -2.303894e+01 171 177 199
-2.589058e+00 1.256850e+00 1.073021e+01 92 82 57
-2.096074e+00 3.140210e-01 1.070365e+01 62 63 75
5.019066e+00 6.017594e+00 -7.953580e+00 12 17 19
-1.535788e+00 6.526642e-01 9.418214e+00 87 91 100
-3.427984e+00 8.127856e-01 9.436954e+00 109 114 133
-2.595110e+00 1.137898e+00 1.068838e+01 94 84 66
-2.751458e+00 1.144116e+00 1.059608e+01 33 30 29
-2.559800e+00 1.510309e+00 1.082499e+01 45 46 31
-2.659049e+00 1.605985e-01 1.142124e+01 138 134 121
-3.762841e+00 7.519835e-01 9.763338e+00 157 154 145
-2.752836e+00 1.016689e+00 1.053951e+01 94 84 59
-4.943628e-01 1.038965e+00 7.858567e+00 97 95 77
-2.642722e+00 1.221205e+00 1.068481e+01 42 36 36
-2.660025e+00 1.293512e+00 1.070047e+01 32 27 21
-2.587112e+00 1.349529e+00 1.075863e+01 31 26 21
-2.698345e+00 1.467305e+00 1.072982e+01 57 55 42
-2.694435e+00 1.590919e+00 1.076969e+01 17 14 7
-2.717864e+00 1.595443e+00 1.075925e+01 18 16 10
-2.702921e+00 8.819558e-01 1.054229e+01 60 53 42
-2.702921e+00 8.819558e-01 1.054229e+01 60 53 42
-2.739996e+00 8.845759e-01 1.053035e+01 94 84 58
-3.660662e+00 8.096585e-01 9.535163e+00 155 153 143
-1.696670e+00 8.321286e-01 8.836078e+00 162 180 204
-2.766612e+00 1.040535e+00 1.055411e+01 88 83 65
-2.743842e+00 1.115708e+00 1.058915e+01 38 29 26
-2.610485e+00 1.120746e+00 1.066774e+01 92 84 61
-2.679908e+00 1.448278e+00 1.072922e+01 20 18 12
1.823821e-02 1.065480e+01 -2.332890e+01 23 25 28
-1.063740e+01 1.020536e+01 -1.904599e+01 151 153 167
-1.555647e+01 1.508821e+01 -2.254195e+01 209 202 218
-1.957421e+01 1.140050e+01 -1.419666e+01 37 41 53
4.684466e+00 1.108114e+01 -2.639994e+01 28 30 25
4.848788e+00 1.134038e+01 -2.139508e+01 24 24 24
-1.604472e+01 6.464493e+00 -5.061961e+00 5 8 6
3.140929e+00 1.275697e+01 -2.160908e+01 110 95 103
5.927990e+00 1.090800e+01 -2.150268e+01 129 118 107
-2.646550e+00 9.839745e-01 1.061878e+01 67 57 50
-3.630041e+00 9.073036e-01 9.180730e+00 97 100 113
-2.651325e+00 1.244975e+00 1.069355e+01 99 92 71
-9.776825e-01 3.386960e-01 1.022540e+01 168 168 171
6.795161e+00 5.470892e+00 -7.346417e+00 131 117 144
6.795161e+00 5.470892e+00 -7.346417e+00 131 117 144
-3.744882e+00 2.004145e+00 1.102191e+01 14 31 32
-2.680060e+00 1.179030e+00 1.065583e+01 63 53 43
-2.646966e+00 1.399513e+00 1.074853e+01 54 51 40
-2.720488e+00 1.034185e+00 1.058604e+01 61 51 39
-1.404745e+00 6.226107e-01 9.575500e+00 176 173 178
-5.048042e+00 1.181928e+00 8.288784e+00 110 102 82
-7.331756e+00 4.669129e+00 3.911823e+00 94 88 89
-2.599203e+00 1.115372e+00 1.068164e+01 103 94 76
-2.334874e+00 1.025661e+00 8.388888e+00 120 124 133
-1.855902e+00 -3.389112e-01 8.423739e+00 133 139 113
-2.606991e+00 6.628302e-01 1.006402e+01 98 80 59
-1.311091e+01 6.547738e+00 -6.985594e+00 7 7 7
-1.602510e+01 5.177465e+00 -1.254475e+00 7 7 5
-1.615449e+01 5.654876e+00 -1.725648e+00 53 60 66
-6.897071e+00 1.565912e+00 7.359175e+00 97 89 75
-1.164372e+01 2.889950e+00 4.331947e+00 83 80 74
-3.300122e+00 1.242450e-01 1.150024e+01 27 22 26
-3.300122e+00 1.242450e-01 1.150024e+01 27 22 26
-1.572752e+00 4.951964e-01 1.001950e+01 169 167 158
-1.159406e+01 3.139782e+00 4.484936e+00 25 26 30
-1.985780e+00 3.094554e-01 1.076577e+01 194 194 184
-7.366674e+00 1.909171e+00 6.411305e+00 108 99 82
-1.780788e+00 3.112925e-01 1.069230e+01 184 181 167
-2.537317e+00 1.181888e+00 1.067754e+01 55 38 30
-2.537317e+00 1.181888e+00 1.067754e+01 55 38 30
-2.385769e+00 1.637059e+00 1.054651e+01 58 52 43
-5.550140e+00 8.741490e+00 -1.604167e+01 129 125 147
-1.566571e+01 5.067501e+00 -1.483861e+00 94 84 81
-1.065500e+00 5.343714e-01 1.066869e+01 154 154 150
-1.588703e+00 6.763896e-01 9.447010e+00 105 117 137
-2.504033e+00 1.038986e+00 1.054815e+01 59 49 41
-2.497153e+00 1.315119e+00 1.067305e+01 50 47 38
-2.497153e+00 1.315119e+00 1.067305e+01 50 47 38
-2.286511e+00 1.413152e+00 1.021916e+01 83 75 64
-2.340427e+00 1.631928e+00 1.047105e+01 44 40 29
-1.572075e+00 4.485628e-01 1.016970e+01 47 44 60
-9.990826e-01 6.493984e-01 9.357279e+00 53 74 101
-2.383179e+00 6.093679e-01 1.007324e+01 28 26 22
-2.463726e+00 8.359327e-01 1.036555e+01 66 56 46
-2.463699e+00 8.634648e-01 1.038382e+01 62 50 36
-2.463699e+00 8.634648e-01 1.038382e+01 62 50 36
-2.455672e+00 8.659894e-01 1.037064e+01 42 28 20
-2.543963e+00 1.019143e+00 1.060390e+01 76 64 46
-2.269361e+00 1.473082e+00 1.023841e+01 71 64 56
-2.379343e+00 1.611286e+00 1.052930e+01 35 35 25
-8.513662e-01 6.090136e-01 9.399412e+00 139 145 136
-1.438047e+00 6.102477e-01 9.611115e+00 94 107 117
-2.390761e+00 8.493548e-01 1.020611e+01 71 58 47
-2.251792e+00 1.716756e+00 1.027126e+01 57 56 44
-1.733894e+00 4.692829e-01 1.015776e+01 91 90 99
-1.561247e+00 5.354725e-01 9.896652e+00 168 165 173
-1.426486e+00 5.780907e-01 9.704705e+00 94 92 100
-1.119509e+00 6.971078e-01 9.213421e+00 116 133 151
-9.574647e-01 7.565586e-01 9.014858e+00 121 130 151
-1.220748e+00 9.668474e-01 8.413124e+00 186 194 207
-1.613474e+00 5.882358e-02 1.132630e+01 131 127 118
-1.613064e+00 5.916073e-02 1.132600e+01 131 127 118
-1.806676e+00 1.051856e-01 1.129131e+01 137 133 122
-2.185191e+00 1.655856e-01 1.121707e+01 141 137 122
-2.007963e+00 1.535104e-01 1.117903e+01 141 138 123
-1.534967e+00 1.737180e-01 1.097407e+01 144 140 131
2.794901e-01 5.502598e-01 9.191965e+00 79 87 48
-1.836321e+00 5.681688e-02 1.140154e+01 110 112 101
-1.842840e+00 6.115212e-02 1.141005e+01 110 112 101
-1.775248e+00 6.409363e-02 1.138528e+01 131 127 116
-1.828074e+00 8.013491e-02 1.139222e+01 133 129 118
-1.844761e+00 8.297123e-02 1.136604e+01 134 128 116
-1.964452e+00 1.017405e-01 1.130119e+01 136 130 116
-2.012433e+00 1.207794e-01 1.130400e+01 138 136 121
-1.715127e+00 8.431942e-02 1.130794e+01 134 131 121
-1.715127e+00 8.431942e-02 1.130794e+01 134 131 121
-2.011935e+00 1.426003e-01 1.123338e+01 141 135 121
-2.151054e+00 1.846307e-01 1.116301e+01 144 138 122
-1.380425e+00 1.070673e-01 1.110912e+01 37 24 33
-1.380425e+00 1.070673e-01 1.110912e+01 37 24 33
-1.534471e+00 1.922685e-01 1.091018e+01 60 52 69
-1.069068e+00 2.758381e-01 1.052934e+01 143 139 127
-1.043183e+00 2.663072e-01 1.049461e+01 143 139 127
-2.861028e+00 2.077855e-01 1.132668e+01 13 11 12
-1.914260e+00 9.661391e-02 1.134156e+01 135 133 107
-1.680422e+00 7.238885e-02 1.130130e+01 132 128 117
-1.765074e+00 9.596759e-02 1.128540e+01 136 132 121
-1.869695e+00 1.161829e-01 1.123763e+01 137 132 119
-1.915172e+00 1.327735e-01 1.125422e+01 140 134 121
-1.944374e+00 1.357028e-01 1.120473e+01 141 138 120
-2.078587e+00 1.713920e-01 1.117544e+01 145 139 123
-2.186960e+00 1.942139e-01 1.113652e+01 148 142 127
-2.294023e+00 2.246268e-01 1.113560e+01 151 148 131
-8.605729e-01 2.340281e-01 1.061449e+01 137 137 129
-8.605729e-01 2.340281e-01 1.061449e+01 137 137 129
-1.196672e+00 3.050650e-01 1.048247e+01 151 144 134
-8.959826e-01 3.109686e-01 1.026811e+01 143 139 128
-1.035895e+00 3.452202e-01 1.022605e+01 149 146 134
-4.714033e-01 4.261302e-01 9.795329e+00 53 53 45
7.926610e-02 5.829773e-01 9.200418e+00 53 52 24
5.259974e-01 6.588358e-01 8.887877e+00 54 63 21
-1.867285e+00 6.572484e-02 1.140114e+01 132 128 116
-2.592059e+00 1.883118e-01 1.130969e+01 146 140 123
-1.649493e+00 6.075497e-02 1.134409e+01 131 127 115
-2.112861e+00 1.784612e-01 1.116856e+01 142 139 123
-2.205152e+00 1.987120e-01 1.113433e+01 148 142 130
-2.046444e+00 1.792219e-01 1.114312e+01 18 14 13
-2.046444e+00 1.792219e-01 1.114312e+01 18 14 13
-2.213823e+00 2.088974e-01 1.111768e+01 29 26 21
-1.659705e+00 2.822615e-01 1.068417e+01 167 168 173
-3.674943e+00 6.229009e-01 1.014908e+01 105 101 124
-9.707945e-01 3.273589e-01 1.025667e+01 146 142 130
-9.707945e-01 3.273589e-01 1.025667e+01 146 142 130
-1.420605e+00 4.552784e-01 1.002004e+01 177 176 185
-4.072895e-01 4.475034e-01 9.731617e+00 89 86 69
-3.606100e-01 4.928044e-01 9.587204e+00 112 112 95
1.954046e-01 6.620808e-01 8.988162e+00 43 49 32
-2.706052e+00 1.408620e+00 1.071006e+01 12 12 10
-1.709404e+00 3.028034e-02 1.143267e+01 126 123 111
-2.275526e+00 1.228885e-01 1.139131e+01 136 134 117
-1.766088e+00 4.993560e-02 1.140287e+01 18 15 16
-1.952608e+00 9.046163e-02 1.135207e+01 24 20 25
-1.943966e+00 1.013328e-01 1.134810e+01 134 131 115
-1.718608e+00 6.726207e-02 1.135056e+01 130 126 115
-1.718608e+00 6.726207e-02 1.135056e+01 130 126 115
-2.718625e+00 2.249704e-01 1.124137e+01 30 25 32
-2.825452e+00 2.390173e-01 1.123015e+01 19 14 21
-1.689220e+00 7.662674e-02 1.134037e+01 132 129 117
-2.213107e+00 1.524687e-01 1.128362e+01 137 133 121
-1.868632e+00 1.052379e-01 1.130751e+01 135 128 117
-1.984459e+00 1.308084e-01 1.126268e+01 137 134 120
-1.607489e+00 7.715486e-02 1.126938e+01 21 19 21
-1.740698e+00 1.026276e-01 1.127199e+01 16 13 15
-1.792784e+00 1.132574e-01 1.124936e+01 14 14 13
-2.136491e+00 1.682969e-01 1.121260e+01 141 136 117
-1.725243e+00 1.069536e-01 1.124369e+01 16 14 16
-1.776680e+00 1.184992e-01 1.122236e+01 15 13 17
-2.138925e+00 1.757937e-01 1.118911e+01 22 17 29
-1.834686e+00 1.328002e-01 1.120804e+01 17 16 16
-2.126985e+00 1.934136e-01 1.113259e+01 15 15 15
-2.067789e+00 2.593584e-01 1.090534e+01 165 159 159
-1.600780e+00 2.658618e-01 1.065761e+01 165 164 172
-1.697988e+00 2.870154e-01 1.065360e+01 165 168 175
-1.780508e+00 3.120068e-01 1.060802e+01 166 164 177
-3.612109e+00 6.030303e-01 1.018982e+01 92 90 96
-3.615536e+00 5.976781e-01 1.015512e+01 92 90 96
-8.011563e-01 2.564758e-01 1.044638e+01 139 136 124
-1.107712e+00 3.243034e-01 1.032155e+01 148 146 133
-1.112610e+00 3.247624e-01 1.032845e+01 148 146 133
-7.441129e-01 2.890573e-01 1.035455e+01 32 32 28
-7.866037e-01 2.962076e-01 1.033510e+01 116 112 102
-1.299090e+00 3.635422e-01 1.025598e+01 164 166 169
-3.461240e+00 6.523050e-01 9.964929e+00 157 151 140
-9.509091e-01 3.477524e-01 1.023425e+01 23 22 27
-1.176888e+00 4.199032e-01 1.004658e+01 85 98 127
-1.184805e+00 4.242262e-01 1.006007e+01 85 98 127
-1.472918e+00 4.634832e-01 1.000999e+01 178 176 181
-1.535279e+00 4.926063e-01 9.953324e+00 85 99 130
-5.739902e-01 3.827400e-01 1.005280e+01 141 137 126
-1.165861e-01 5.007782e-01 9.500881e+00 64 66 50
-1.909544e-03 5.895981e-01 9.146647e+00 57 60 42
2.488176e-03 6.122058e-01 9.084647e+00 111 105 83
-3.190407e+00 9.964685e-01 8.813171e+00 156 165 179
-2.596027e+00 1.199438e+00 1.071631e+01 79 63 47
-2.721140e+00 1.393530e+00 1.069491e+01 91 78 57
-2.858198e+00 2.001911e-01 1.135167e+01 139 137 116
-2.898540e+00 2.050962e-01 1.134462e+01 24 22 27
-1.738119e+00 3.090743e-02 1.146139e+01 29 24 24
-2.360542e+00 1.337804e-01 1.138482e+01 134 133 114
-2.495850e+00 1.565162e-01 1.136247e+01 143 137 120
-1.750918e+00 4.597966e-02 1.142561e+01 28 24 27
-1.784880e+00 4.989152e-02 1.141724e+01 128 125 111
-2.484984e+00 1.612344e-01 1.134982e+01 142 141 119
-2.613479e+00 1.881350e-01 1.131943e+01 42 36 32
-1.615620e+00 3.920313e-02 1.138625e+01 123 123 104
-2.598916e+00 1.957337e-01 1.129328e+01 51 41 52
-1.600768e+00 4.238297e-02 1.138089e+01 33 24 25
-1.781388e+00 7.620146e-02 1.134717e+01 17 15 15
-1.701687e+00 6.885486e-02 1.135035e+01 27 21 28
-1.728693e+00 7.625118e-02 1.134101e+01 26 22 33
-2.042404e+00 1.213341e-01 1.130475e+01 28 22 28
-1.767641e+00 8.609949e-02 1.132026e+01 19 16 20
-1.548139e+00 5.109888e-02 1.132562e+01 23 19 17
-2.222314e+00 1.592458e-01 1.127232e+01 25 20 29
-1.540189e+00 5.747516e-02 1.130864e+01 28 21 27
-1.887935e+00 1.095896e-01 1.127056e+01 22 20 21
-2.812759e+00 2.540846e-01 1.117644e+01 46 33 63
-1.715969e+00 9.660891e-02 1.128093e+01 17 16 14
-2.629693e+00 2.380032e-01 1.116272e+01 150 145 111
-1.899406e+00 1.402185e-01 1.121130e+01 18 14 17
-2.226869e+00 1.997700e-01 1.113957e+01 145 139 124
-2.226869e+00 1.997700e-01 1.113957e+01 145 139 124
-2.078361e+00 1.806619e-01 1.115257e+01 29 25 45
-2.168596e+00 1.963851e-01 1.114722e+01 142 138 119
-2.011745e+00 1.719724e-01 1.114378e+01 21 19 25
-2.154701e+00 1.989989e-01 1.112262e+01 18 18 20
-1.432204e+00 1.241027e-01 1.109868e+01 29 25 27
-1.569055e+00 1.521315e-01 1.104893e+01 139 136 126
-2.051000e+00 2.531751e-01 1.091267e+01 58 64 98
-1.748711e+00 2.389416e-01 1.083381e+01 164 165 171
-1.635448e+00 2.767632e-01 1.067954e+01 164 165 170
-1.652985e+00 2.737521e-01 1.062639e+01 167 168 173
-2.020873e+00 3.396286e-01 1.057163e+01 156 156 155
-7.273170e-01 2.286118e-01 1.049029e+01 132 133 127
-7.124917e-01 2.360585e-01 1.049858e+01 136 135 122
-8.363732e-01 2.622856e-01 1.045491e+01 140 135 129
-8.296566e-01 2.611671e-01 1.044675e+01 140 135 129
-1.774999e+00 3.890559e-01 1.034917e+01 166 165 170
-1.855783e+00 4.015580e-01 1.035028e+01 171 166 167
-1.106460e+00 3.189623e-01 1.036906e+01 144 142 129
-3.567717e+00 6.781775e-01 9.904444e+00 159 157 153
-3.431579e+00 6.692478e-01 9.939104e+00 156 152 144
-1.752270e+00 4.676695e-01 1.009723e+01 163 164 168
-1.173353e+00 3.961258e-01 1.012942e+01 76 93 117
-5.066666e-01 4.344730e-01 9.804331e+00 27 27 27
