ply
format ascii 1.0
element face 0
property list uchar int vertex_indices
element vertex 947
property float x
property float y
property float z
property uchar diffuse_red
property uchar diffuse_green
property uchar diffuse_blue
end_header
-2.236450e+00 1.498048e+00 1.006708e+01 66 63 52
-2.722985e+00 1.437326e+00 1.048337e+01 105 89 71
-2.656740e+00 1.463111e+00 1.054070e+01 64 60 50
-2.363027e+00 1.504083e+00 1.034961e+01 52 49 40
-2.599521e+00 1.471638e+00 1.058289e+01 68 62 54
-2.262876e+00 1.535559e+00 1.014758e+01 57 56 48
-2.646946e+00 1.522310e+00 1.056180e+01 47 42 29
-7.102067e+00 1.622762e+00 7.228263e+00 107 90 82
-2.251657e+00 1.625895e+00 1.013213e+01 54 51 42
-2.343301e+00 1.601588e+00 1.033475e+01 48 44 38
-6.974994e+00 1.720419e+00 6.880977e+00 106 90 74
-2.376111e+00 1.626742e+00 1.044314e+01 57 53 44
-2.306921e+00 1.672272e+00 1.028665e+01 65 61 50
-2.318607e+00 1.693489e+00 1.033186e+01 53 53 44
-2.239022e+00 1.764212e+00 1.016189e+01 26 32 29
-2.145714e+00 1.725449e-01 1.106104e+01 61 51 52
-1.613036e+00 2.905291e-01 1.044319e+01 92 84 96
-1.005850e+00 3.099679e-01 1.008211e+01 64 59 75
-1.850502e+00 1.695385e-01 1.014173e+01 150 140 139
-1.824562e+00 4.133978e-01 1.010489e+01 98 97 104
-1.313226e+00 5.210759e-01 9.561199e+00 127 136 126
-1.073709e+00 5.391090e-01 9.402900e+00 107 109 95
-1.111590e+00 5.605574e-01 9.354856e+00 76 77 90
-9.204332e-01 5.972542e-01 9.235080e+00 80 89 98
-1.286017e+00 5.701215e-01 9.412105e+00 89 96 102
-1.044374e+00 5.864385e-01 9.260072e+00 76 84 92
-2.412171e+00 5.709454e-01 9.969383e+00 28 28 23
-2.399419e+00 5.778637e-01 9.944269e+00 26 26 23
-2.417358e+00 5.928540e-01 1.002530e+01 31 29 30
-2.385055e+00 5.865448e-01 9.951880e+00 28 25 20
-3.712135e+00 6.065216e-01 9.875311e+00 158 153 140
-4.225722e+00 5.732937e-01 1.010592e+01 86 77 98
-1.871270e+00 7.813444e-01 8.927041e+00 148 156 162
-2.500916e+00 8.660699e-01 1.034364e+01 101 85 68
-2.500916e+00 8.660699e-01 1.034364e+01 101 85 68
-3.414307e+00 6.762777e-01 9.662895e+00 167 160 150
-2.483237e+00 8.783099e-01 1.029166e+01 58 41 27
-4.879409e+00 5.391162e-01 1.021005e+01 135 135 51
-4.371248e+00 6.019620e-01 1.003847e+01 163 152 133
-4.371248e+00 6.019620e-01 1.003847e+01 163 152 133
-1.281537e+00 8.946844e-01 8.362431e+00 119 151 176
-4.990489e+00 5.693895e-01 1.013399e+01 121 115 98
-1.100831e+00 9.824304e-01 7.996772e+00 107 146 174
-1.005973e+00 9.942459e-01 7.957596e+00 137 158 179
-1.090212e+00 1.008648e+00 7.952974e+00 174 181 199
-2.291320e+00 9.061635e-01 8.667027e+00 197 203 218
-1.043594e+00 1.033016e+00 7.882099e+00 180 182 183
-1.036463e+00 1.042337e+00 7.860700e+00 124 137 126
-4.023318e+00 7.867530e-01 9.348634e+00 167 160 142
-1.210844e+00 1.052250e+00 7.856617e+00 125 147 161
-1.787348e+00 1.089387e+00 7.947511e+00 117 133 145
-1.911761e+00 1.110708e+00 7.911793e+00 106 116 133
-1.934403e+00 1.126839e+00 7.847736e+00 108 123 147
-2.010629e+00 1.146988e+00 7.845175e+00 153 177 213
-2.491748e+00 1.099824e+00 8.065032e+00 194 194 209
-1.037767e+00 1.281925e+00 7.087993e+00 178 178 180
-2.448560e+00 1.198067e+00 1.041081e+01 98 80 58
-2.448560e+00 1.198067e+00 1.041081e+01 98 80 58
-4.913997e-01 1.262205e+00 -1.877788e+01 178 176 180
-1.506410e+00 1.329176e+00 7.000703e+00 165 173 194
-4.338345e+00 1.067459e+00 8.548009e+00 168 168 157
-4.345893e+00 1.185092e+00 8.182599e+00 124 112 78
-5.487953e+00 1.104685e+00 8.457295e+00 116 107 85
-5.487953e+00 1.104685e+00 8.457295e+00 116 107 85
-5.413427e+00 1.172139e+00 8.228924e+00 85 75 47
-5.413427e+00 1.172139e+00 8.228924e+00 85 75 47
-6.046120e+00 1.117843e+00 8.561369e+00 116 105 85
-4.964231e+00 1.285365e+00 7.842107e+00 105 98 80
-8.860471e-01 1.745378e+00 5.429773e+00 85 79 65
-1.047365e+00 1.779499e+00 5.389370e+00 96 81 53
-6.191291e+00 1.334259e+00 7.907375e+00 79 72 51
-2.629800e+00 1.448143e+00 1.055393e+01 21 21 15
-2.354963e+00 1.503230e+00 1.032965e+01 54 55 43
-7.012484e+00 1.378211e+00 7.954112e+00 114 106 87
-2.422353e+00 1.548804e+00 1.050134e+01 67 65 53
-2.432491e+00 1.571195e+00 1.051951e+01 67 62 52
-2.430148e+00 1.569878e+00 1.052468e+01 67 62 52
-8.265863e+00 1.611372e+00 7.355807e+00 95 80 78
-2.363727e+00 1.609139e+00 1.039903e+01 62 56 41
-2.627062e+00 1.591579e+00 1.059489e+01 26 25 21
-2.189454e+00 1.794817e+00 1.005472e+01 28 26 13
-9.608569e-01 2.644325e-01 1.021148e+01 74 74 50
-1.222731e+00 4.111631e-01 9.850490e+00 24 26 18
-1.493433e+00 4.413811e-01 9.909066e+00 72 65 78
-3.376493e+00 3.223541e-01 1.074730e+01 154 155 123
-1.665930e+00 4.725967e-01 9.864249e+00 157 153 141
-1.316531e+00 5.160323e-01 9.619956e+00 95 102 94
-1.605892e+00 5.040967e-01 9.738758e+00 155 162 123
-1.066763e+00 5.548151e-01 9.393120e+00 120 85 83
-1.018169e+00 5.630352e-01 9.348276e+00 116 93 107
-1.152896e+00 5.585021e-01 9.423727e+00 107 51 48
-9.924646e-01 5.726083e-01 9.332797e+00 83 92 105
-1.049475e+00 5.710089e-01 9.325108e+00 92 102 104
-1.367875e+00 5.626754e-01 9.483290e+00 88 90 87
-1.375243e+00 5.672476e-01 9.460999e+00 134 130 127
-1.359260e+00 6.321623e-01 9.261692e+00 160 159 169
-1.431272e+00 6.283448e-01 9.293785e+00 176 175 180
-1.238756e+00 6.600171e-01 9.137823e+00 147 154 171
-1.012238e+00 6.954730e-01 8.920067e+00 87 111 146
-1.520302e+00 6.962172e-01 9.178517e+00 101 117 139
-1.750294e+00 7.088425e-01 9.125160e+00 165 166 168
-4.756405e+00 4.774757e-01 1.036403e+01 103 106 60
-2.433465e+00 8.400629e-01 1.020885e+01 49 35 25
-2.433465e+00 8.400629e-01 1.020885e+01 49 35 25
-2.524137e+00 8.567221e-01 1.037971e+01 99 84 67
-3.778794e+00 6.238485e-01 9.845810e+00 157 148 134
-4.936259e+00 5.135987e-01 1.027161e+01 80 75 28
-1.799371e+00 8.019642e-01 8.843691e+00 115 126 140
-3.428092e+00 6.678793e-01 9.659474e+00 76 77 77
-3.813852e+00 6.627291e-01 9.720681e+00 55 55 56
-2.519671e+00 9.095821e-01 1.039409e+01 38 33 27
-2.708291e+00 8.974990e-01 1.034780e+01 121 108 95
-3.655328e+00 7.024132e-01 9.586163e+00 75 66 74
-1.377762e+00 9.120189e-01 8.345566e+00 179 192 210
-1.395952e+00 9.167837e-01 8.331240e+00 167 176 196
-2.325185e+00 9.556665e-01 1.002892e+01 97 83 63
-2.325185e+00 9.556665e-01 1.002892e+01 97 83 63
-3.901731e+00 7.266468e-01 9.546437e+00 76 78 71
-4.968306e+00 6.336547e-01 9.975490e+00 110 88 90
-3.582368e+00 7.836122e-01 9.314972e+00 172 167 153
-2.345296e+00 9.108346e-01 8.658503e+00 133 146 169
-9.058724e-01 1.047633e+00 7.763123e+00 132 156 162
-3.998692e+00 7.762610e-01 9.428985e+00 152 144 130
-1.261722e+00 1.031394e+00 7.950770e+00 171 177 182
-5.178177e+00 6.725405e-01 9.871636e+00 98 85 53
-1.110309e+00 1.061121e+00 7.784916e+00 128 136 147
-9.971062e-01 1.073796e+00 7.722492e+00 132 149 155
-1.031477e+00 1.084630e+00 7.714725e+00 131 153 161
-3.801299e+00 8.312419e-01 9.199576e+00 159 155 143
-3.801299e+00 8.312419e-01 9.199576e+00 159 155 143
-3.839272e+00 8.306397e-01 9.162088e+00 161 159 145
-1.063184e+00 1.094546e+00 7.696729e+00 127 149 160
-1.063184e+00 1.094546e+00 7.696729e+00 127 149 160
-1.986680e+00 1.025935e+00 8.140617e+00 105 114 131
-1.719186e+00 1.054904e+00 8.015321e+00 126 140 152
-5.003511e+00 7.454529e-01 9.668549e+00 150 153 110
-1.134899e+00 1.117063e+00 7.664333e+00 148 169 181
-2.163907e+00 1.019719e+00 8.222606e+00 190 191 199
-1.723801e+00 1.064359e+00 7.995319e+00 183 190 193
-1.740665e+00 1.066520e+00 7.972617e+00 113 121 134
-2.012506e+00 1.041974e+00 8.147089e+00 183 190 198
-1.726308e+00 1.073953e+00 7.967467e+00 136 148 162
-4.919929e+00 7.728925e-01 9.664068e+00 116 118 96
-1.756672e+00 1.077423e+00 7.947851e+00 115 129 150
-1.015280e+00 1.159308e+00 7.503785e+00 152 153 171
-2.244547e+00 1.047163e+00 8.192301e+00 121 134 144
-1.804832e+00 1.092548e+00 7.920032e+00 186 192 203
-2.363698e+00 1.065483e+00 8.169375e+00 118 129 143
-1.163828e+00 1.241499e+00 7.281735e+00 131 129 131
-2.468981e+00 1.287851e+00 1.048327e+01 25 22 14
-2.378782e+00 1.384367e+00 1.034898e+01 21 20 8
-2.240489e+00 1.442098e+00 1.001260e+01 78 74 63
-2.370009e+00 1.447736e+00 1.035559e+01 20 20 12
-2.416516e+00 1.451517e+00 1.043447e+01 21 19 6
-2.406817e+00 1.532656e+00 1.044751e+01 21 21 10
-5.843215e+00 1.731756e+00 6.573000e+00 76 70 59
-2.303354e+00 1.617834e+00 1.027229e+01 20 21 13
4.198691e+00 5.290185e+00 -7.017981e+00 8 8 8
7.254186e+00 5.525441e+00 -6.025213e+00 18 22 26
7.221493e+00 6.850667e+00 -4.975271e+00 44 27 34
-1.446560e+00 1.384929e-01 1.086385e+01 148 146 141
-2.710870e+00 4.776764e-01 1.023386e+01 20 19 19
4.765076e+00 1.093411e+01 -1.382556e+01 252 254 250
-2.584872e+00 1.422926e+00 1.056892e+01 18 19 16
7.223702e+00 5.746937e+00 -5.572390e+00 255 254 251
3.743461e+00 1.325467e+01 -2.292892e+01 171 177 199
-2.558260e+00 1.286056e+00 1.054542e+01 92 82 57
-2.048655e+00 2.915214e-01 1.052416e+01 62 63 75
4.422167e+00 5.635846e+00 -6.552139e+00 12 17 19
-1.471526e+00 6.440729e-01 9.191202e+00 87 91 100
-3.449831e+00 8.247547e-01 9.210530e+00 109 114 133
-2.565886e+00 1.160745e+00 1.050245e+01 94 84 66
-2.730552e+00 1.167808e+00 1.040170e+01 33 30 29
-2.524735e+00 1.553186e+00 1.064308e+01 45 46 31
-2.636489e+00 1.317770e-01 1.127376e+01 138 134 121
-3.803410e+00 7.612798e-01 9.534533e+00 157 154 145
-2.733833e+00 1.034123e+00 1.034799e+01 94 84 59
-4.056747e-01 1.039104e+00 7.595340e+00 97 95 77
-2.615422e+00 1.248990e+00 1.050046e+01 42 36 36
-2.632563e+00 1.325155e+00 1.051269e+01 32 27 21
-2.555412e+00 1.384119e+00 1.057622e+01 31 26 21
-2.671521e+00 1.508442e+00 1.054229e+01 57 55 42
-2.666269e+00 1.639148e+00 1.058472e+01 17 14 7
-2.691377e+00 1.642895e+00 1.057648e+01 18 16 10
-2.682124e+00 8.920721e-01 1.035079e+01 60 53 42
-2.682124e+00 8.920721e-01 1.035079e+01 60 53 42
-2.721435e+00 8.950172e-01 1.033923e+01 94 84 58
-3.697166e+00 8.194539e-01 9.292861e+00 155 153 143
-1.643175e+00 8.325246e-01 8.589467e+00 162 180 204
-2.748051e+00 1.059332e+00 1.036305e+01 88 83 65
-2.723263e+00 1.138340e+00 1.039909e+01 38 29 26
-2.582303e+00 1.142945e+00 1.048084e+01 92 84 61
-2.652373e+00 1.488501e+00 1.054325e+01 20 18 12
-8.720560e-02 1.058620e+01 -2.325787e+01 23 25 28
-1.090847e+01 1.045094e+01 -1.975567e+01 151 153 167
-1.587504e+01 1.542935e+01 -2.317662e+01 209 202 218
-2.001240e+01 1.176316e+01 -1.476060e+01 37 41 53
4.302990e+00 1.062121e+01 -2.495036e+01 28 30 25
5.099891e+00 1.175592e+01 -2.304923e+01 24 24 24
-1.648245e+01 6.738278e+00 -5.576031e+00 5 8 6
3.180928e+00 1.293080e+01 -2.233744e+01 110 95 103
5.744724e+00 1.070925e+01 -2.113313e+01 129 118 107
-2.621731e+00 9.989363e-01 1.043069e+01 67 57 50
-3.661797e+00 9.247755e-01 8.940781e+00 97 100 113
-2.624106e+00 1.273255e+00 1.051102e+01 99 92 71
-8.835906e-01 3.120663e-01 1.002976e+01 168 168 171
6.067128e+00 5.086078e+00 -5.928536e+00 131 117 144
6.067128e+00 5.086078e+00 -5.928536e+00 131 117 144
-3.770703e+00 2.083945e+00 1.085253e+01 14 31 32
-2.655241e+00 1.204776e+00 1.047064e+01 63 53 43
-2.618081e+00 1.436817e+00 1.056414e+01 54 51 40
-2.699306e+00 1.052853e+00 1.039914e+01 61 51 39
-1.326649e+00 6.076997e-01 9.329420e+00 176 173 178
-5.151132e+00 1.223890e+00 8.018051e+00 110 102 82
-7.524140e+00 4.875775e+00 3.485009e+00 94 88 89
-2.570173e+00 1.137488e+00 1.049727e+01 103 94 76
-2.307486e+00 1.038366e+00 8.112854e+00 120 124 133
-1.817371e+00 -3.981779e-01 8.131010e+00 133 139 113
-2.585950e+00 6.603489e-01 9.850548e+00 98 80 59
-1.347836e+01 6.800307e+00 -7.590866e+00 7 7 7
-1.645371e+01 5.422058e+00 -1.661766e+00 7 7 5
-1.658341e+01 5.913758e+00 -2.143875e+00 53 60 66
-7.077616e+00 1.639458e+00 7.074357e+00 97 89 75
-1.198077e+01 3.046721e+00 4.007466e+00 83 80 74
-3.308401e+00 1.016069e-01 1.136556e+01 27 22 26
-3.308401e+00 1.016069e-01 1.136556e+01 27 22 26
-1.500691e+00 4.755348e-01 9.795681e+00 169 167 158
-1.192780e+01 3.306354e+00 4.163943e+00 25 26 30
-1.930792e+00 2.841186e-01 1.058155e+01 194 194 184
-7.567547e+00 2.000102e+00 6.093248e+00 108 99 82
-1.715713e+00 2.843263e-01 1.050282e+01 184 181 167
-2.504360e+00 1.206157e+00 1.049190e+01 55 38 30
-2.504360e+00 1.206157e+00 1.049190e+01 55 38 30
-2.342263e+00 1.683402e+00 1.035204e+01 58 52 43
-5.608204e+00 8.777248e+00 -1.618711e+01 129 125 147
-1.608973e+01 5.306362e+00 -1.905089e+00 94 84 81
-9.617910e-01 5.131622e-01 1.047244e+01 154 154 150
-1.520468e+00 6.655262e-01 9.196149e+00 105 117 137
-2.471414e+00 1.055414e+00 1.035619e+01 59 49 41
-2.461096e+00 1.345940e+00 1.048652e+01 50 47 38
-2.461096e+00 1.345940e+00 1.048652e+01 50 47 38
-2.242033e+00 1.446502e+00 1.000843e+01 83 75 64
-2.295158e+00 1.677479e+00 1.027250e+01 44 40 29
-1.499179e+00 4.266315e-01 9.953118e+00 47 44 60
-9.022282e-01 6.323819e-01 9.098620e+00 53 74 101
-2.351158e+00 6.022674e-01 9.858286e+00 28 26 22
-2.431945e+00 8.413633e-01 1.016481e+01 66 56 46
-2.431569e+00 8.703264e-01 1.018390e+01 62 50 36
-2.431569e+00 8.703264e-01 1.018390e+01 62 50 36
-2.423204e+00 8.728974e-01 1.017001e+01 42 28 20
-2.513162e+00 1.034961e+00 1.041508e+01 76 64 46
-2.223380e+00 1.509403e+00 1.002831e+01 71 64 56
-2.335836e+00 1.656207e+00 1.033399e+01 35 35 25
-7.471504e-01 5.888765e-01 9.141979e+00 139 145 136
-1.361446e+00 5.949902e-01 9.366955e+00 94 107 117
-2.356262e+00 8.546763e-01 9.996994e+00 71 58 47
-2.202692e+00 1.765543e+00 1.006204e+01 57 56 44
-1.669212e+00 4.497066e-01 9.941774e+00 91 90 99
-1.489238e+00 5.176677e-01 9.666865e+00 168 165 173
-1.348813e+00 5.612015e-01 9.464894e+00 94 92 100
-1.029470e+00 6.832803e-01 8.948783e+00 116 133 151
-8.605783e-01 7.441849e-01 8.740195e+00 121 130 151
-1.140134e+00 9.662517e-01 8.112723e+00 186 194 207
-1.538837e+00 1.992703e-02 1.117482e+01 131 127 118
-1.538837e+00 1.992703e-02 1.117482e+01 131 127 118
-1.745833e+00 7.157749e-02 1.114386e+01 137 133 122
-2.140866e+00 1.369496e-01 1.106337e+01 141 137 122
-1.958089e+00 1.251665e-01 1.102830e+01 141 138 123
-1.462924e+00 1.429792e-01 1.081228e+01 144 140 131
3.910530e-01 5.304011e-01 8.987995e+00 79 87 48
-1.780748e+00 2.341939e-02 1.126502e+01 110 112 101
-1.780748e+00 2.341939e-02 1.126502e+01 110 112 101
-1.711830e+00 2.780776e-02 1.124169e+01 131 127 116
-1.764423e+00 4.262927e-02 1.124507e+01 133 129 118
-1.783821e+00 4.787521e-02 1.122038e+01 134 128 116
-1.911746e+00 6.791874e-02 1.115449e+01 136 130 116
-1.959634e+00 8.766896e-02 1.115461e+01 138 136 121
-1.648898e+00 4.945239e-02 1.116031e+01 134 131 121
-1.648898e+00 4.945239e-02 1.116031e+01 134 131 121
-1.958737e+00 1.110775e-01 1.108000e+01 141 135 121
-2.110136e+00 1.590394e-01 1.101568e+01 144 138 122
-1.293084e+00 6.890024e-02 1.094406e+01 37 24 33
-1.293084e+00 6.890024e-02 1.094406e+01 37 24 33
-1.462720e+00 1.624249e-01 1.074549e+01 60 52 69
-9.560106e-01 2.390096e-01 1.031716e+01 143 139 127
-9.560106e-01 2.390096e-01 1.031716e+01 143 139 127
-2.849508e+00 1.822550e-01 1.117409e+01 13 11 12
-1.854074e+00 5.770390e-02 1.118879e+01 135 133 107
-1.612261e+00 3.575199e-02 1.115266e+01 132 128 117
-1.697352e+00 5.824306e-02 1.113053e+01 136 132 121
-1.807532e+00 8.016756e-02 1.108077e+01 137 132 119
-1.855608e+00 9.872669e-02 1.109915e+01 140 134 121
-1.898269e+00 1.096144e-01 1.106570e+01 141 138 120
-2.028000e+00 1.402512e-01 1.101741e+01 145 139 123
-2.163560e+00 1.859459e-01 1.102293e+01 148 142 127
-2.255556e+00 1.996506e-01 1.097920e+01 151 148 131
-7.525383e-01 2.002165e-01 1.042694e+01 137 137 129
-7.525383e-01 2.002165e-01 1.042694e+01 137 137 129
-1.110324e+00 2.793665e-01 1.029668e+01 151 144 134
-7.982006e-01 2.840159e-01 1.007358e+01 143 139 128
-9.444907e-01 3.200936e-01 1.002974e+01 149 146 134
-3.759533e-01 4.092285e-01 9.605033e+00 53 53 45
1.874575e-01 5.650166e-01 8.992948e+00 53 52 24
6.643081e-01 6.391304e-01 8.649327e+00 54 63 21
-1.807144e+00 3.008093e-02 1.125697e+01 132 128 116
-2.566465e+00 1.606756e-01 1.115698e+01 146 140 123
-1.580597e+00 2.475431e-02 1.119884e+01 131 127 115
-2.070759e+00 1.536994e-01 1.102278e+01 142 139 123
-2.161053e+00 1.699353e-01 1.097441e+01 148 142 130
-1.995181e+00 1.497074e-01 1.098522e+01 18 14 13
-1.995181e+00 1.497074e-01 1.098522e+01 18 14 13
-2.170353e+00 1.813311e-01 1.095744e+01 29 26 21
-1.593087e+00 2.575752e-01 1.050686e+01 167 168 173
-3.708275e+00 6.270610e-01 9.949460e+00 105 101 124
-8.827130e-01 3.026106e-01 1.007053e+01 146 142 130
-8.827130e-01 3.026106e-01 1.007053e+01 146 142 130
-1.349735e+00 4.377804e-01 9.819595e+00 177 176 185
-2.868753e-01 4.237069e-01 9.508493e+00 89 86 69
-2.640654e-01 4.772589e-01 9.391500e+00 112 112 95
2.957557e-01 6.502644e-01 8.788273e+00 43 49 32
-2.681754e+00 1.445993e+00 1.053046e+01 12 12 10
-1.649432e+00 -4.421620e-03 1.129916e+01 126 123 111
-2.233907e+00 9.077589e-02 1.124405e+01 136 134 117
-1.701755e+00 1.347023e-02 1.125959e+01 18 15 16
-1.902192e+00 5.887164e-02 1.121285e+01 24 20 25
-1.886367e+00 6.589994e-02 1.119911e+01 134 131 115
-1.652442e+00 3.159929e-02 1.120504e+01 130 126 115
-1.652442e+00 3.159929e-02 1.120504e+01 130 126 115
-2.700428e+00 2.005081e-01 1.108739e+01 30 25 32
-2.812321e+00 2.152081e-01 1.107295e+01 19 14 21
-1.621785e+00 4.137983e-02 1.119451e+01 132 129 117
-2.168934e+00 1.218471e-01 1.113140e+01 137 133 121
-1.810105e+00 7.190535e-02 1.116066e+01 135 128 117
-1.928051e+00 9.603578e-02 1.110739e+01 137 134 120
-1.541167e+00 4.338360e-02 1.112545e+01 21 19 21
-1.673333e+00 6.673837e-02 1.111897e+01 16 13 15
-1.729982e+00 7.989606e-02 1.109830e+01 14 14 13
-2.089013e+00 1.383630e-01 1.105739e+01 141 136 117
-1.657671e+00 7.080714e-02 1.108975e+01 16 14 16
-1.717020e+00 8.696918e-02 1.107485e+01 15 13 17
-2.091660e+00 1.462660e-01 1.103275e+01 22 17 29
-1.773825e+00 1.004865e-01 1.105469e+01 17 16 16
-2.079409e+00 1.648052e-01 1.097360e+01 15 15 15
-2.018529e+00 2.341051e-01 1.073611e+01 165 159 159
-1.535261e+00 2.417833e-01 1.048523e+01 165 164 172
-1.634140e+00 2.622150e-01 1.047613e+01 165 168 175
-1.720344e+00 2.887089e-01 1.042791e+01 166 164 177
-3.646055e+00 6.000898e-01 9.955342e+00 92 90 96
-3.646055e+00 6.000898e-01 9.955342e+00 92 90 96
-6.904989e-01 2.234296e-01 1.024988e+01 139 136 124
-1.023665e+00 2.997368e-01 1.013624e+01 148 146 133
-1.023665e+00 2.997368e-01 1.013624e+01 148 146 133
-6.362160e-01 2.596777e-01 1.016010e+01 32 32 28
-6.766800e-01 2.670415e-01 1.013518e+01 116 112 102
-1.222188e+00 3.413180e-01 1.006593e+01 164 166 169
-3.484187e+00 6.564254e-01 9.757237e+00 157 151 140
-8.549518e-01 3.234213e-01 1.003758e+01 23 22 27
-1.104972e+00 4.044113e-01 9.863587e+00 85 98 127
-1.104972e+00 4.044113e-01 9.863587e+00 85 98 127
-1.404136e+00 4.465869e-01 9.808696e+00 178 176 181
-1.469280e+00 4.773483e-01 9.749343e+00 85 99 130
-4.660431e-01 3.583426e-01 9.852561e+00 141 137 126
-7.437903e-03 4.833516e-01 9.296351e+00 64 66 50
8.881103e-02 5.782777e-01 8.957006e+00 57 60 42
1.069203e-01 5.976338e-01 8.874459e+00 111 105 83
-3.202377e+00 1.014927e+00 8.569670e+00 156 165 179
-2.566261e+00 1.225733e+00 1.053158e+01 79 63 47
-2.697901e+00 1.430376e+00 1.051504e+01 91 78 57
-2.846443e+00 1.741895e-01 1.120032e+01 139 137 116
-2.888987e+00 1.795614e-01 1.119286e+01 24 22 27
-1.672386e+00 -6.513107e-03 1.132115e+01 29 24 24
-2.323069e+00 1.024354e-01 1.123679e+01 134 133 114
-2.465188e+00 1.267764e-01 1.121272e+01 143 137 120
-1.687479e+00 9.151596e-03 1.128564e+01 28 24 27
-1.721417e+00 1.186334e-02 1.127452e+01 128 125 111
-2.453798e+00 1.317147e-01 1.119945e+01 142 141 119
-2.588932e+00 1.605316e-01 1.116709e+01 42 36 32
-1.547566e+00 2.698666e-03 1.124616e+01 123 123 104
-2.573714e+00 1.685282e-01 1.113971e+01 51 41 52
-1.533283e+00 6.984875e-03 1.124215e+01 33 24 25
-1.715771e+00 3.853670e-02 1.119785e+01 17 15 15
-1.634758e+00 3.231150e-02 1.120475e+01 27 21 28
-1.662222e+00 3.963400e-02 1.119379e+01 26 22 33
-1.990291e+00 8.874291e-02 1.115462e+01 28 22 28
-1.701054e+00 4.860766e-02 1.116901e+01 19 16 20
-1.476544e+00 1.458303e-02 1.118171e+01 23 19 17
-2.178590e+00 1.289897e-01 1.111947e+01 25 20 29
-1.467735e+00 2.095270e-02 1.116323e+01 28 21 27
-1.834745e+00 7.889153e-02 1.112750e+01 22 20 21
-2.799144e+00 2.311359e-01 1.101671e+01 46 33 63
-1.647237e+00 6.010984e-02 1.112812e+01 17 16 14
-2.606612e+00 2.134179e-01 1.100285e+01 150 145 111
-1.839864e+00 1.063958e-01 1.105500e+01 18 14 17
-2.183760e+00 1.712944e-01 1.097979e+01 145 139 124
-2.183760e+00 1.712944e-01 1.097979e+01 145 139 124
-2.028479e+00 1.510328e-01 1.099482e+01 29 25 45
-2.122178e+00 1.671399e-01 1.098709e+01 142 138 119
-1.961818e+00 1.443180e-01 1.099102e+01 21 19 25
-2.108482e+00 1.707804e-01 1.096304e+01 18 18 20
-1.352296e+00 8.835136e-02 1.093894e+01 29 25 27
-1.498056e+00 1.204226e-01 1.089032e+01 139 136 126
-2.000982e+00 2.275697e-01 1.074395e+01 58 64 98
-1.686002e+00 2.118537e-01 1.066385e+01 164 165 171
-1.568882e+00 2.512845e-01 1.050374e+01 164 165 170
-1.587633e+00 2.482268e-01 1.044828e+01 167 168 173
-1.971446e+00 3.185883e-01 1.038824e+01 156 156 155
-6.306921e-01 1.991864e-01 1.031671e+01 132 133 127
-5.980869e-01 2.018815e-01 1.030532e+01 136 135 122
-7.360275e-01 2.332371e-01 1.026991e+01 140 135 129
-7.360275e-01 2.332371e-01 1.026991e+01 140 135 129
-1.716161e+00 3.696626e-01 1.015837e+01 166 165 170
-1.800337e+00 3.830958e-01 1.015891e+01 171 166 167
-1.022022e+00 2.941556e-01 1.018567e+01 144 142 129
-3.596058e+00 6.835851e-01 9.690026e+00 159 157 153
-3.453688e+00 6.721303e-01 9.716621e+00 156 152 144
-1.694059e+00 4.521144e-01 9.896745e+00 163 164 168
-1.098310e+00 3.785635e-01 9.945253e+00 76 93 117
-4.077305e-01 4.129314e-01 9.607381e+00 27 27 27
-3.154863e-01 4.512411e-01 9.497980e+00 88 85 65
-2.694362e+00 8.764272e-01 1.034785e+01 23 23 20
-9.151121e-02 4.756633e-01 9.380122e+00 129 122 109
-3.239298e+00 9.516591e-01 8.770422e+00 187 188 200
7.340975e-02 6.005458e-01 8.946648e+00 111 105 82
2.121690e-02 6.111738e-01 8.914207e+00 112 106 78
7.245194e-02 6.229273e-01 8.879690e+00 35 41 26
2.194164e-01 6.606592e-01 8.683025e+00 50 55 40
-2.733338e+00 1.282217e+00 1.044059e+01 97 81 64
-2.607934e+00 1.628411e+00 1.062228e+01 12 12 9
-2.304242e+00 1.008975e-01 1.124312e+01 130 131 100
-1.631698e+00 -1.569604e-03 1.129891e+01 53 32 54
-1.631698e+00 -1.569604e-03 1.129891e+01 53 32 54
-1.547137e+00 -2.109068e-03 1.126774e+01 33 24 22
-1.573902e+00 7.737825e-03 1.125023e+01 120 120 95
-2.036865e+00 8.086229e-02 1.119693e+01 27 22 14
-1.555230e+00 8.265123e-03 1.123763e+01 28 23 27
-2.640157e+00 1.831656e-01 1.111939e+01 145 142 128
-1.857044e+00 6.478841e-02 1.116943e+01 20 19 17
-1.828674e+00 6.573157e-02 1.116693e+01 23 21 18
-1.682050e+00 4.348471e-02 1.118158e+01 28 25 26
-1.923460e+00 8.964244e-02 1.113518e+01 20 19 14
-1.691008e+00 5.372509e-02 1.115269e+01 36 28 36
-1.803420e+00 8.012562e-02 1.111801e+01 27 27 28
-2.054231e+00 1.225721e-01 1.109047e+01 21 19 18
-1.928926e+00 1.108539e-01 1.107489e+01 31 26 27
-2.594129e+00 2.181874e-01 1.100347e+01 52 41 60
-2.290924e+00 1.719837e-01 1.102385e+01 74 70 60
-2.271836e+00 1.840842e-01 1.099890e+01 152 148 135
-2.000024e+00 1.588467e-01 1.097279e+01 142 139 129
-2.093213e+00 1.806881e-01 1.093920e+01 39 30 60
-1.151721e+00 8.450824e-02 1.086593e+01 26 23 18
-1.123645e+00 8.907081e-02 1.085826e+01 38 29 33
-1.210895e+00 1.049617e-01 1.084588e+01 136 133 119
-1.216896e+00 1.098737e-01 1.083270e+01 129 132 103
-1.860834e+00 2.138748e-01 1.073346e+01 69 72 102
-1.832927e+00 2.406460e-01 1.062728e+01 75 82 103
-1.487849e+00 2.206437e-01 1.056369e+01 72 79 102
-1.629315e+00 2.815433e-01 1.040434e+01 79 90 118
-4.219732e+00 6.429719e-01 1.000517e+01 149 140 140
-6.683052e-01 2.132713e-01 1.032187e+01 138 134 128
-1.432243e+00 3.196089e-01 1.021011e+01 164 164 172
-6.369844e-01 2.167314e-01 1.029315e+01 107 101 105
-1.770958e+00 3.805869e-01 1.013997e+01 163 161 166
-1.784943e+00 3.909762e-01 1.017551e+01 163 161 166
-8.808837e-01 2.657590e-01 1.024231e+01 146 139 130
-1.761872e+00 3.895784e-01 1.011327e+01 76 85 112
-1.013123e+00 3.099707e-01 1.011552e+01 146 141 129
-1.487415e+00 3.960945e-01 1.001043e+01 96 109 136
-1.568091e+00 4.090420e-01 9.984799e+00 93 105 129
-3.876681e+00 7.408638e-01 9.593480e+00 107 109 122
-3.835569e+00 7.432342e-01 9.583287e+00 159 156 153
-3.725765e+00 7.377021e-01 9.572416e+00 162 158 157
-3.822321e+00 7.641804e-01 9.533373e+00 160 158 158
-6.208777e-01 3.671856e-01 9.838375e+00 145 137 125
-3.611694e+00 8.150245e-01 9.293188e+00 173 172 170
-4.162600e-01 4.540521e-01 9.519102e+00 45 46 32
-3.694014e+00 8.691365e-01 9.118380e+00 178 182 182
-3.668794e+00 8.766631e-01 9.113991e+00 121 127 152
-3.668794e+00 8.766631e-01 9.113991e+00 121 127 152
-1.828912e-01 4.364417e-01 9.487055e+00 28 33 30
-1.015879e-01 4.593603e-01 9.395731e+00 44 37 28
-5.690992e-02 5.050225e-01 9.264051e+00 76 83 62
-1.508985e-02 5.759392e-01 9.051030e+00 143 133 126
5.025058e-01 5.626493e-01 8.913088e+00 47 56 23
5.025058e-01 5.626493e-01 8.913088e+00 47 56 23
-2.725860e+00 1.168011e+00 1.041901e+01 30 24 19
-2.725860e+00 1.168011e+00 1.041901e+01 30 24 19
-1.106912e+00 9.498696e-01 8.057654e+00 157 150 141
-2.586413e+00 1.190073e+00 1.050769e+01 36 27 25
-1.078005e+00 1.045455e+00 7.724362e+00 76 85 38
-2.715277e+00 1.246753e+00 1.044751e+01 36 29 24
-9.981990e-01 1.242651e+00 7.071398e+00 154 143 141
-2.603946e+00 1.500930e+00 1.059289e+01 16 16 14
-1.701311e+00 -1.627252e-04 1.131165e+01 42 30 40
-2.249729e+00 8.679334e-02 1.125549e+01 119 124 83
-1.660650e+00 4.011160e-03 1.129361e+01 47 34 43
-2.699720e+00 2.044771e-01 1.107136e+01 140 137 126
-1.482861e+00 1.807296e-02 1.117394e+01 124 117 108
-1.499541e+00 2.410495e-02 1.117455e+01 116 123 86
-1.499541e+00 2.410495e-02 1.117455e+01 116 123 86
-1.574440e+00 3.530380e-02 1.116545e+01 114 123 87
-1.371728e+00 9.183585e-02 1.093023e+01 125 132 91
-1.145773e+00 7.623831e-02 1.088386e+01 129 125 105
-1.504236e+00 1.675955e-01 1.074774e+01 51 51 82
-1.487563e+00 1.681754e-01 1.074244e+01 145 140 131
-1.576410e+00 1.846293e-01 1.072122e+01 48 50 65
-1.882406e+00 2.507018e-01 1.061184e+01 76 82 110
-1.865504e+00 2.465209e-01 1.060013e+01 161 165 163
-1.856741e+00 2.522751e-01 1.059711e+01 79 90 120
-1.013987e+00 1.401109e-01 1.064974e+01 29 29 24
-1.522492e+00 2.205627e-01 1.057617e+01 65 70 95
-1.430806e+00 2.295901e-01 1.050108e+01 74 81 93
-4.335486e+00 6.171205e-01 1.009042e+01 114 94 88
-1.869755e+00 3.008937e-01 1.042750e+01 158 157 161
-1.678770e+00 2.896974e-01 1.039264e+01 160 162 165
-1.740630e+00 2.977839e-01 1.038122e+01 77 85 107
-7.250760e-01 1.685191e-01 1.047830e+01 44 37 43
-7.250760e-01 1.685191e-01 1.047830e+01 44 37 43
-1.792593e+00 3.134898e-01 1.034648e+01 160 160 165
-8.587357e-01 1.947676e-01 1.042519e+01 140 137 124
-1.936956e+00 3.505260e-01 1.028078e+01 149 150 162
-1.066088e+00 2.390397e-01 1.035470e+01 142 141 117
-6.429737e-01 1.924893e-01 1.036354e+01 42 43 46
-6.429737e-01 1.924893e-01 1.036354e+01 42 43 46
-5.966503e-01 2.142035e-01 1.027848e+01 42 43 42
-9.613790e-01 2.670254e-01 1.023629e+01 141 141 124
-5.716061e-01 2.155090e-01 1.027719e+01 50 44 52
-5.716061e-01 2.155090e-01 1.027719e+01 50 44 52
-9.789219e-01 2.706049e-01 1.022120e+01 145 138 120
-6.232201e-01 2.259997e-01 1.025536e+01 47 46 54
-6.961986e-01 2.427210e-01 1.022842e+01 42 41 45
-7.955909e-01 2.637279e-01 1.019222e+01 41 37 40
-3.922921e+00 6.794907e-01 9.804009e+00 152 145 139
-1.250499e+00 3.342290e-01 1.011978e+01 79 83 110
-9.962655e-01 3.091582e-01 1.011604e+01 42 40 45
-3.584939e+00 6.703715e-01 9.733461e+00 114 113 122
-2.676108e+00 6.370437e-01 1.028655e+01 62 54 42
-2.676108e+00 6.370437e-01 1.028655e+01 62 54 42
-3.781798e+00 7.010748e-01 9.680819e+00 85 83 96
-3.781798e+00 7.010748e-01 9.680819e+00 85 83 96
-3.857951e+00 7.371460e-01 9.596501e+00 98 102 109
-3.857951e+00 7.371460e-01 9.596501e+00 98 102 109
-1.587135e+00 4.462984e-01 9.879438e+00 168 168 173
-3.915315e+00 7.498006e-01 9.564537e+00 92 88 102
-1.585529e+00 4.513641e-01 9.860841e+00 86 96 124
-1.243134e+00 4.099754e-01 9.903637e+00 96 108 131
-1.692819e+00 4.716506e-01 9.830684e+00 75 83 109
-1.692819e+00 4.716506e-01 9.830684e+00 75 83 109
-5.666155e-01 3.540957e-01 9.871383e+00 141 133 125
-6.586379e-01 3.756530e-01 9.800148e+00 145 137 124
-3.966255e+00 8.114748e-01 9.400006e+00 152 150 138
-3.664878e+00 8.267158e-01 9.254063e+00 172 173 170
-1.475607e+00 5.491434e-01 9.519147e+00 162 158 155
-3.755697e+00 8.542526e-01 9.254006e+00 172 174 171
-3.618442e+00 8.350126e-01 9.240773e+00 174 174 174
-3.646321e-01 4.202102e-01 9.611100e+00 32 33 23
-3.637186e+00 8.390325e-01 9.226663e+00 175 177 175
-3.791903e+00 8.585859e-01 9.201199e+00 174 174 174
-3.895415e-01 4.239912e-01 9.582805e+00 69 69 51
-3.733066e+00 8.527664e-01 9.201769e+00 136 141 155
-4.014344e-01 4.277578e-01 9.572458e+00 24 22 20
-1.237485e+00 5.380617e-01 9.473160e+00 165 163 171
-3.635807e+00 8.465030e-01 9.184437e+00 128 133 152
-3.775396e+00 8.637653e-01 9.169685e+00 126 136 153
-3.724310e+00 8.610954e-01 9.176041e+00 180 180 182
-3.402431e+00 8.232435e-01 9.225516e+00 166 166 160
-3.584707e-01 4.597401e-01 9.469920e+00 24 23 28
-2.172572e-01 4.472254e-01 9.481301e+00 28 31 29
-3.677369e+00 8.883905e-01 9.089969e+00 179 180 185
-1.330087e-01 4.461276e-01 9.448789e+00 51 53 35
-1.866476e-01 4.618562e-01 9.431787e+00 115 107 83
1.459851e-01 4.202777e-01 9.433622e+00 47 72 71
-2.904014e-01 4.787325e-01 9.410542e+00 125 122 106
-3.489918e+00 8.855529e-01 9.029085e+00 92 105 121
-3.460205e+00 8.832921e-01 9.031041e+00 100 99 122
-3.548885e+00 9.053437e-01 8.987678e+00 114 121 145
-1.114109e-03 4.750870e-01 9.306461e+00 57 62 39
-3.051394e+00 9.182478e-01 8.785631e+00 112 124 152
-3.012581e+00 9.157809e-01 8.788314e+00 110 118 151
-3.126171e+00 9.299903e-01 8.764250e+00 191 194 209
-3.110011e+00 9.327423e-01 8.759938e+00 116 133 158
-3.184538e+00 9.438219e-01 8.755002e+00 186 191 203
-3.070743e+00 9.296663e-01 8.764252e+00 115 128 164
-3.482164e+00 9.893647e-01 8.716166e+00 82 95 105
-3.482164e+00 9.893647e-01 8.716166e+00 82 95 105
-3.442697e+00 9.870068e-01 8.707164e+00 86 87 113
-3.413240e+00 9.972689e-01 8.709553e+00 167 162 165
-2.587650e+00 1.009207e+00 1.045681e+01 27 23 22
-3.654020e+00 1.042563e+00 8.617814e+00 121 126 147
2.266870e-01 5.646189e-01 9.006004e+00 50 55 25
-2.715184e+00 1.030001e+00 1.038414e+01 98 86 63
4.057399e-01 5.454267e-01 9.006732e+00 39 43 20
-3.449874e+00 1.025629e+00 8.600934e+00 87 89 106
-5.717314e-02 6.329172e-01 8.840449e+00 43 49 38
-1.126443e-01 6.503975e-01 8.845013e+00 51 51 50
5.969218e-02 6.329031e-01 8.816887e+00 46 47 29
-3.841819e+00 1.121230e+00 8.427044e+00 160 166 201
-1.512382e-02 6.690822e-01 8.700437e+00 52 55 53
-2.596560e+00 1.082779e+00 1.047298e+01 38 34 26
1.051257e-01 6.988982e-01 8.597169e+00 116 109 84
-1.232370e+00 9.937097e-01 7.950587e+00 74 95 104
-2.886168e+00 1.228198e+00 7.742605e+00 83 85 84
-2.886168e+00 1.228198e+00 7.742605e+00 83 85 84
-2.698867e+00 1.423068e+00 6.986723e+00 174 172 182
-9.795058e-01 1.227726e+00 7.089220e+00 154 146 144
-2.893095e+00 1.451829e+00 7.001844e+00 111 111 117
-2.865064e+00 1.468687e+00 6.953295e+00 120 125 131
-2.709939e+00 1.647903e+00 6.327442e+00 98 88 63
-2.717607e+00 1.397146e+00 1.049314e+01 42 35 25
-2.675285e+00 1.399023e+00 1.051768e+01 91 77 63
-2.581989e+00 1.614956e+00 1.063324e+01 17 15 17
-1.717095e+00 -6.751612e-04 1.130974e+01 61 49 53
-1.717095e+00 -6.751612e-04 1.130974e+01 61 49 53
-2.607549e+00 1.821690e-01 1.110408e+01 155 147 134
-1.973411e+00 1.482009e-01 1.098605e+01 126 123 102
-2.045107e+00 2.457814e-01 1.068453e+01 158 159 154
-9.428473e-01 1.238186e-01 1.068935e+01 37 28 28
-1.835755e+00 2.488711e-01 1.057623e+01 96 101 137
-4.088945e+00 5.541914e-01 1.024829e+01 62 51 49
-4.076203e+00 5.620989e-01 1.022772e+01 63 55 69
-4.192008e+00 5.866828e-01 1.016763e+01 88 79 74
-4.192008e+00 5.866828e-01 1.016763e+01 88 79 74
-1.853743e+00 2.910400e-01 1.044630e+01 86 93 120
-1.753370e+00 2.945008e-01 1.041580e+01 160 162 163
-8.132389e-01 1.804873e-01 1.047568e+01 41 40 35
-9.125136e-01 2.043119e-01 1.041539e+01 133 129 119
-8.633479e-01 2.070520e-01 1.041845e+01 141 139 128
-6.121683e-01 1.945946e-01 1.035026e+01 54 39 65
-1.772242e+00 3.604203e-01 1.019783e+01 70 82 107
-1.385374e+00 3.118015e-01 1.022703e+01 84 99 110
-4.152150e+00 6.806986e-01 9.884395e+00 149 145 147
-4.154707e+00 6.791927e-01 9.876140e+00 149 145 147
-3.752073e+00 6.255371e-01 9.918840e+00 75 72 89
-3.742110e+00 6.274612e-01 9.924830e+00 144 146 134
-6.066368e-01 2.086393e-01 1.029848e+01 33 36 29
-5.476878e-01 2.031863e-01 1.030067e+01 53 47 61
-3.695335e+00 6.220633e-01 9.915914e+00 84 79 102
-1.503061e+00 3.384345e-01 1.019492e+01 160 165 180
-9.732085e-01 2.639307e-01 1.023764e+01 40 36 32
-3.737623e+00 6.317686e-01 9.891157e+00 89 87 109
-5.825676e-01 2.179939e-01 1.025330e+01 56 54 53
-2.768123e+00 5.562312e-01 1.021532e+01 49 38 28
-7.172045e-01 2.463559e-01 1.021725e+01 41 39 36
-7.635301e-01 2.547343e-01 1.022007e+01 140 134 123
-4.098914e+00 7.087669e-01 9.740587e+00 86 88 102
-1.032894e+00 3.106629e-01 1.012168e+01 44 42 38
-1.307555e+00 3.483592e-01 1.009748e+01 164 167 178
-3.767526e+00 6.840852e-01 9.733314e+00 91 89 106
-3.799279e+00 6.963207e-01 9.693353e+00 149 146 138
-3.799279e+00 6.963207e-01 9.693353e+00 149 146 138
-2.760400e+00 6.569446e-01 1.024621e+01 57 54 37
-1.070667e+00 3.613221e-01 9.976485e+00 157 152 155
-1.497482e+00 4.199716e-01 9.928499e+00 90 96 121
-3.559766e+00 6.907074e-01 9.674199e+00 95 88 114
-3.642077e+00 7.097606e-01 9.631822e+00 91 96 112
-1.476542e+00 4.319610e-01 9.886768e+00 93 108 126
-1.328725e+00 4.125353e-01 9.887594e+00 101 116 137
-1.653697e+00 4.656107e-01 9.833863e+00 89 97 118
-1.212857e+00 4.075484e-01 9.872181e+00 170 176 184
-3.436186e+00 6.991153e-01 9.609418e+00 92 90 105
-1.632251e+00 5.083447e-01 9.695389e+00 158 160 158
-1.632251e+00 5.083447e-01 9.695389e+00 158 160 158
-1.569289e+00 5.052429e-01 9.685247e+00 162 166 171
-3.503738e+00 7.684785e-01 9.410644e+00 99 103 122
-3.582459e+00 7.996986e-01 9.337442e+00 131 136 152
-3.555168e+00 8.187084e-01 9.261154e+00 177 173 177
-3.402404e+00 8.104887e-01 9.241419e+00 80 85 99
-3.725799e-01 4.289001e-01 9.576878e+00 29 31 21
-3.533756e+00 8.429361e-01 9.176991e+00 99 112 125
-2.190458e-01 4.246995e-01 9.559951e+00 40 41 30
-3.486110e+00 8.437923e-01 9.174313e+00 174 171 177
-1.469338e+00 5.972758e-01 9.356924e+00 98 98 96
-3.573721e+00 8.640766e-01 9.133625e+00 179 176 185
-2.744085e-01 4.595755e-01 9.455805e+00 34 38 39
-2.744085e-01 4.595755e-01 9.455805e+00 34 38 39
-3.770074e+00 9.034428e-01 9.042177e+00 115 124 144
-3.770074e+00 9.034428e-01 9.042177e+00 115 124 144
-3.426776e+00 8.693572e-01 9.065852e+00 87 91 99
-3.803656e+00 9.220778e-01 9.033323e+00 178 179 182
-2.770577e+00 9.080961e-01 1.031771e+01 97 85 69
-2.284597e-01 4.685397e-01 9.392326e+00 45 42 30
-2.284597e-01 4.685397e-01 9.392326e+00 45 42 30
-2.763050e+00 9.125963e-01 1.031715e+01 70 56 49
3.575984e-03 4.544037e-01 9.367650e+00 49 52 29
-1.134429e-01 4.716361e-01 9.372957e+00 55 57 45
-8.020875e-02 4.860276e-01 9.308064e+00 67 70 51
-1.767081e-02 4.875446e-01 9.282812e+00 112 107 95
-3.360065e+00 9.665522e-01 8.741933e+00 89 97 117
-3.167136e+00 9.448683e-01 8.749990e+00 117 134 156
1.004909e-03 5.562032e-01 9.043350e+00 91 88 83
-2.938809e+00 9.411742e-01 8.690851e+00 110 126 145
-3.405709e+00 1.004671e+00 8.649452e+00 83 91 102
-3.300803e+00 9.954905e-01 8.636908e+00 105 111 130
-2.962174e+00 9.530699e-01 8.654275e+00 111 122 144
-3.546577e+00 1.041340e+00 8.567136e+00 109 109 124
-3.098243e+00 9.898246e-01 8.561390e+00 177 180 192
-2.753444e+00 1.049057e+00 1.036830e+01 24 18 20
-2.753444e+00 1.049057e+00 1.036830e+01 24 18 20
-3.082904e+00 1.000032e+00 8.570483e+00 178 182 193
4.760980e-01 5.811850e-01 8.878565e+00 90 94 60
4.760980e-01 5.811850e-01 8.878565e+00 90 94 60
-5.399401e-02 6.477153e-01 8.827781e+00 96 98 88
-3.420547e+00 1.073209e+00 8.458401e+00 164 164 164
6.316111e-01 5.863739e-01 8.785512e+00 100 96 65
-4.020019e+00 1.160475e+00 8.355212e+00 154 156 173
-4.266852e+00 1.205004e+00 8.253522e+00 126 120 113
2.415388e-01 6.778543e-01 8.639169e+00 99 104 77
7.014649e-02 7.000670e-01 8.604644e+00 110 110 99
-1.435043e+00 9.013618e-01 8.337236e+00 160 159 165
-1.324436e+00 9.087281e-01 8.262061e+00 159 158 154
-1.281682e+00 9.296159e-01 8.171491e+00 159 158 156
-2.667408e+00 1.132041e+00 8.019545e+00 176 183 195
-2.729708e+00 1.176956e+00 1.042193e+01 99 87 64
-1.085644e+00 9.527672e-01 8.055038e+00 53 73 74
-3.125646e+00 1.222378e+00 7.842427e+00 172 179 192
-1.186488e+00 1.002206e+00 7.949678e+00 85 96 67
-2.923327e+00 1.235794e+00 7.710351e+00 102 102 103
-2.953028e+00 1.241239e+00 7.723208e+00 98 101 108
-2.680265e+00 1.238453e+00 1.046891e+01 93 82 71
-2.825303e+00 1.292955e+00 7.487458e+00 107 107 113
-2.875434e+00 1.306842e+00 7.455852e+00 118 118 126
-2.875434e+00 1.306842e+00 7.455852e+00 118 118 126
1.360498e+00 8.610095e-01 7.623291e+00 47 44 35
-2.656004e+00 1.407802e+00 7.043653e+00 170 168 178
-1.207474e+00 1.247445e+00 7.123408e+00 122 120 121
-2.858407e+00 1.453270e+00 6.933783e+00 166 165 171
-2.703481e+00 1.342128e+00 1.048267e+01 27 26 19
-2.653384e+00 1.337801e+00 1.050272e+01 87 76 62
-2.726131e+00 1.363240e+00 1.047694e+01 14 15 11
-2.726131e+00 1.363240e+00 1.047694e+01 14 15 11
-2.648365e+00 1.392149e+00 1.052721e+01 93 77 61
-2.568638e+00 1.390594e+00 1.057803e+01 23 24 17
-2.568638e+00 1.390594e+00 1.057803e+01 23 24 17
-2.599486e+00 1.449593e+00 1.057872e+01 60 56 47
-2.599486e+00 1.449593e+00 1.057872e+01 60 56 47
-2.689853e+00 1.529472e+00 1.054246e+01 55 52 40
-2.541692e+00 1.615519e+00 1.065672e+01 97 88 87
-1.663704e+00 1.347744e-02 1.129101e+01 128 126 115
-1.828210e+00 1.096951e-01 1.103475e+01 114 113 75
-1.361772e+00 9.624377e-02 1.092425e+01 49 44 57
-1.687310e+00 1.594885e-01 1.084392e+01 133 126 134
-3.895196e+00 4.774134e-01 1.047321e+01 137 135 123
-4.073523e+00 5.529499e-01 1.026319e+01 73 61 63
-4.088341e+00 5.627371e-01 1.025513e+01 126 126 113
-4.111549e+00 5.626472e-01 1.022843e+01 134 133 122
-4.093717e+00 5.635993e-01 1.022049e+01 79 74 80
-4.247174e+00 5.920065e-01 1.016593e+01 89 81 67
-4.185813e+00 5.860936e-01 1.016513e+01 144 137 122
-4.307184e+00 6.082255e-01 1.014277e+01 114 110 82
-1.839112e+00 2.906277e-01 1.043903e+01 149 153 166
-7.210096e-01 1.697834e-01 1.046683e+01 65 53 68
-9.307984e-01 2.059000e-01 1.041601e+01 128 127 112
-1.233261e+00 2.775870e-01 1.027990e+01 148 143 122
-3.639512e+00 5.997849e-01 9.972626e+00 84 77 90
-4.179888e+00 6.742843e-01 9.904825e+00 98 95 107
-3.651292e+00 6.072051e-01 9.957600e+00 79 77 87
-3.654373e+00 6.110614e-01 9.942720e+00 146 142 134
-3.654373e+00 6.110614e-01 9.942720e+00 146 142 134
-2.769623e+00 5.293353e-01 1.020687e+01 53 43 28
-2.682387e+00 5.317858e-01 1.025909e+01 59 56 44
-2.765141e+00 5.484374e-01 1.021521e+01 90 79 58
-2.726402e+00 5.486526e-01 1.022077e+01 84 74 51
-3.924872e+00 6.674683e-01 9.836630e+00 67 66 71
-7.763622e-01 2.515954e-01 1.022234e+01 48 50 53
-4.089239e+00 7.134572e-01 9.724135e+00 83 83 95
-2.777865e+00 6.128388e-01 1.022568e+01 63 58 49
-4.144843e+00 7.311501e-01 9.702984e+00 113 112 117
-3.531240e+00 6.871646e-01 9.665726e+00 154 153 153
-3.652408e+00 7.024149e-01 9.640706e+00 84 85 106
-3.702883e+00 7.234892e-01 9.592382e+00 101 102 117
-3.758012e+00 7.300428e-01 9.580860e+00 89 93 102
-9.865349e-01 2.688044e-01 9.169708e+00 101 111 125
-3.859389e+00 7.542947e-01 9.533165e+00 79 85 95
-4.043352e+00 7.960298e-01 9.468270e+00 104 104 111
-3.989804e+00 7.941360e-01 9.450938e+00 91 91 93
-3.490395e+00 7.448253e-01 9.419215e+00 110 112 130
-1.502527e+00 4.967375e-01 9.694831e+00 89 100 124
-3.941366e+00 8.120350e-01 9.378304e+00 97 91 101
-1.612070e+00 5.155371e-01 9.652915e+00 145 145 155
-3.410104e+00 8.150116e-01 9.240737e+00 157 165 164
-3.276372e+00 7.990574e-01 9.253647e+00 116 118 130
-3.470466e+00 8.262937e-01 9.220970e+00 100 109 115
-1.152160e+00 5.442211e-01 9.439154e+00 157 160 178
-3.559542e+00 8.532132e-01 9.157065e+00 119 125 146
-3.559542e+00 8.532132e-01 9.157065e+00 119 125 146
-3.607944e+00 8.641576e-01 9.129368e+00 112 123 147
-3.989672e-01 4.644128e-01 9.441146e+00 83 80 64
-3.601054e-01 4.627386e-01 9.451244e+00 113 108 96
-3.769592e+00 8.964576e-01 9.058252e+00 172 173 183
-3.500980e+00 8.813133e-01 9.054293e+00 94 104 115
-2.041804e-01 5.067525e-01 9.290987e+00 62 60 55
-1.264569e-01 4.971172e-01 9.297921e+00 52 53 39
7.911916e-05 4.873199e-01 9.280137e+00 55 59 39
-5.804560e-02 5.013703e-01 9.262495e+00 64 71 49
-1.761544e+00 7.630703e-01 8.892426e+00 114 126 144
-3.470300e+00 9.875796e-01 8.708533e+00 166 163 170
-3.173716e+00 9.518891e-01 8.728950e+00 181 189 198
-3.539784e-02 5.642497e-01 9.056565e+00 94 93 81
-2.703293e+00 1.018909e+00 1.038552e+01 95 86 71
-2.710658e+00 1.020968e+00 1.038643e+01 56 46 34
-2.683712e+00 1.024776e+00 1.040588e+01 78 68 53
-3.093133e+00 9.841695e-01 8.607399e+00 117 134 143
-3.093133e+00 9.841695e-01 8.607399e+00 117 134 143
-3.545379e+00 1.043177e+00 8.619803e+00 113 116 129
-2.752520e+00 1.040775e+00 1.036037e+01 89 78 60
-3.050198e+00 9.836132e-01 8.585158e+00 122 131 148
-3.586646e+00 1.060897e+00 8.539147e+00 125 129 142
-3.205287e+00 1.023462e+00 8.519334e+00 125 131 153
4.522818e-01 5.728603e-01 8.900789e+00 55 59 36
-1.653510e+00 8.338116e-01 8.616500e+00 106 113 116
-3.232360e+00 1.030592e+00 8.492718e+00 136 145 161
-3.285680e+00 1.044851e+00 8.495667e+00 122 128 143
-1.713298e+00 8.507519e-01 8.586763e+00 83 91 93
-2.745006e+00 1.071211e+00 1.038059e+01 96 84 64
-2.690019e+00 9.786661e-01 8.475644e+00 119 129 142
-3.434815e+00 1.073990e+00 8.452417e+00 106 100 110
-2.737517e+00 9.966160e-01 8.429380e+00 173 181 194
-2.749130e+00 1.001509e+00 8.436057e+00 129 135 154
-2.749130e+00 1.001509e+00 8.436057e+00 129 135 154
-2.863622e+00 1.022162e+00 8.401005e+00 123 127 137
-4.103547e+00 1.178546e+00 8.313378e+00 143 138 150
-2.921784e+00 1.048063e+00 8.349145e+00 125 131 147
-2.921784e+00 1.048063e+00 8.349145e+00 125 131 147
-1.309151e+00 8.782891e-01 8.377641e+00 123 125 122
-2.578293e+00 1.101336e+00 1.048612e+01 64 51 35
-2.578293e+00 1.101336e+00 1.048612e+01 64 51 35
-1.378614e+00 8.938557e-01 8.308774e+00 130 130 136
-2.997568e+00 1.125078e+00 8.181957e+00 144 155 177
-1.209748e+00 9.248507e-01 8.166847e+00 147 146 140
-2.593615e+00 1.145180e+00 1.048669e+01 93 81 63
-1.154090e+00 9.561864e-01 8.083246e+00 80 90 82
-1.003612e+00 9.776063e-01 7.950107e+00 104 108 92
-2.717514e+00 1.244482e+00 1.044995e+01 47 38 34
-2.825568e+00 1.345974e+00 7.313761e+00 141 140 145
-2.672661e+00 1.344171e+00 7.262800e+00 142 144 153
-2.649929e+00 1.279644e+00 1.050080e+01 89 77 60
-2.720539e+00 1.322136e+00 1.046614e+01 36 31 26
-2.505895e+00 1.486389e+00 6.731644e+00 146 146 154
-2.682696e+00 1.359881e+00 1.050459e+01 92 79 65
-2.553539e+00 1.375433e+00 1.058122e+01 28 22 16
-2.600038e+00 1.385780e+00 1.055820e+01 18 18 11
-2.669929e+00 1.402853e+00 1.052225e+01 28 20 13
-2.695423e+00 1.409665e+00 1.050675e+01 21 17 17
-2.711212e+00 1.413186e+00 1.050148e+01 21 14 11
-2.720812e+00 1.415672e+00 1.049433e+01 23 14 8
-2.604650e+00 1.402690e+00 1.056209e+01 36 31 28
-2.694344e+00 1.418649e+00 1.051159e+01 24 21 17
-2.686378e+00 1.422035e+00 1.051691e+01 33 26 18
-2.686378e+00 1.422035e+00 1.051691e+01 33 26 18
-2.651939e+00 1.488665e+00 1.054155e+01 20 19 13
-2.656134e+00 1.497547e+00 1.055796e+01 22 19 11
-2.681514e+00 1.610249e+00 1.056884e+01 22 15 12
-2.701278e+00 1.618489e+00 1.055945e+01 15 15 9
-2.574466e+00 1.611110e+00 1.064051e+01 90 86 74
-2.632135e+00 1.622065e+00 1.061092e+01 88 82 73
-2.694638e+00 1.602830e+00 1.081672e+01 20 15 16
-2.683542e+00 1.662369e+00 1.058753e+01 89 81 72
-2.643291e+00 1.684407e+00 1.068030e+01 40 38 31
-2.035716e+00 1.546389e-01 1.108464e+01 163 161 151
-1.910180e+00 2.044401e-01 1.084715e+01 167 166 160
-1.776171e+00 3.117739e-01 1.037948e+01 56 52 55
-1.764554e+00 3.675300e-01 1.022786e+01 57 63 46
-3.300604e+00 3.230273e-01 1.068907e+01 169 167 159
-1.609389e+00 8.280648e-01 8.759369e+00 197 203 217
-1.932718e+00 8.210817e-01 8.724417e+00 103 119 135
-2.457916e+00 1.631246e+00 1.055369e+01 17 17 15
-2.346212e+00 1.902345e-01 1.110448e+01 166 162 153
-2.827746e+00 8.639345e-02 1.141440e+01 150 148 140
-1.507717e+00 5.726691e-01 9.539191e+00 72 78 78
-4.520418e+00 9.894606e-01 8.853999e+00 85 74 18
-2.556577e+00 1.424869e+00 1.058648e+01 23 25 19
-1.957695e+00 2.404205e-01 1.080753e+01 170 170 162
-1.305999e+00 4.521527e-01 9.807001e+00 49 48 44
-2.417547e+00 5.800212e-01 9.953949e+00 33 32 27
-2.417547e+00 5.800212e-01 9.953949e+00 33 32 27
-1.934239e+00 1.456330e-01 1.110472e+01 23 17 21
-1.669640e+00 2.823967e-01 1.052269e+01 167 165 161
-1.134718e+00 3.967006e-01 9.969011e+00 26 24 29
-1.182383e+00 4.220360e-01 9.836890e+00 169 167 164
-2.929636e+00 1.229298e-01 1.128272e+01 156 154 137
-2.977990e+00 1.229919e-01 1.129308e+01 35 29 39
-1.743094e+00 3.860625e-01 1.018738e+01 168 164 160
-2.979296e+00 1.529436e-01 1.124878e+01 155 152 143
-2.793426e+00 2.236764e-01 1.099190e+01 27 28 19
-2.494046e+00 5.385583e-01 1.009680e+01 23 24 23
-3.390070e+00 3.235019e-01 1.071301e+01 96 93 79
-1.398116e+00 9.060228e-01 8.370319e+00 82 99 129
-3.596855e+00 4.255694e-01 1.055860e+01 77 78 68
-3.596855e+00 4.255694e-01 1.055860e+01 77 78 68
-2.529447e+00 7.491075e-01 1.028797e+01 105 83 59
-2.073820e+00 1.182042e-01 1.122144e+01 154 151 136
-2.595427e+00 3.082358e-02 1.154733e+01 79 68 66
-2.669664e+00 3.674660e-02 1.152906e+01 147 149 135
-2.103658e+00 1.622367e-01 1.108014e+01 35 33 49
-2.782512e+00 5.484729e-02 1.148668e+01 146 142 131
-2.179266e+00 2.049542e-01 1.094103e+01 158 157 142
-2.293977e+00 1.840717e-01 1.102317e+01 30 27 36
-1.857244e+00 3.025643e-01 1.045936e+01 166 162 162
-7.030649e-01 5.640151e-01 9.234539e+00 70 83 90
-7.704275e-01 5.582851e-01 9.268096e+00 44 63 95
-2.867301e+00 1.826588e-01 1.112636e+01 33 30 44
-1.532138e+00 4.982441e-01 9.709597e+00 183 179 172
-1.567457e+00 4.976014e-01 9.761882e+00 58 49 50
-2.330698e+00 6.310924e-01 9.772698e+00 24 24 22
-4.289721e+00 4.267168e-01 1.065019e+01 91 93 71
-3.714026e+00 6.962089e-01 9.602808e+00 162 158 146
-3.820666e+00 6.836197e-01 9.722009e+00 167 161 149
-4.016245e+00 7.577574e-01 9.440889e+00 167 160 152
-4.984724e+00 5.878366e-01 1.026418e+01 59 59 20
-7.468799e+00 1.773621e+00 6.875021e+00 36 37 39
-7.468799e+00 1.773621e+00 6.875021e+00 36 37 39
-1.953203e+00 1.364760e-01 1.113452e+01 153 154 135
-1.947925e+00 1.419002e-01 1.112229e+01 34 27 44
-2.579312e+00 2.907434e-02 1.154606e+01 156 154 137
-2.640194e+00 2.589939e-02 1.157141e+01 69 57 58
-2.107234e+00 1.521274e-01 1.112036e+01 150 151 136
-2.107234e+00 1.521274e-01 1.112036e+01 150 151 136
-2.668000e+00 4.048605e-02 1.151824e+01 144 143 123
-2.012597e+00 1.717392e-01 1.101888e+01 159 157 148
-2.012597e+00 1.717392e-01 1.101888e+01 159 157 148
-2.086869e+00 1.816078e-01 1.100393e+01 22 19 26
-1.938799e+00 2.271998e-01 1.081617e+01 36 28 41
-1.185191e+00 3.643580e-01 1.005739e+01 50 47 68
-1.509388e+00 3.412146e-01 1.024653e+01 132 125 115
-1.912983e+00 2.782369e-01 1.059731e+01 48 39 60
-1.723325e+00 3.158637e-01 1.039250e+01 46 42 61
-2.957006e+00 9.849694e-02 1.137336e+01 139 143 123
-1.332239e+00 4.265073e-01 9.928009e+00 83 77 79
-7.300556e-01 5.485552e-01 9.304313e+00 70 83 95
-2.954001e+00 1.323053e-01 1.127271e+01 36 31 48
-1.457233e+00 4.228011e-01 9.957630e+00 187 186 171
-8.418090e-01 5.375942e-01 9.375662e+00 51 63 81
-1.834357e+00 3.700622e-01 1.022039e+01 181 182 180
-1.027948e+00 5.495244e-01 9.428910e+00 155 154 146
-8.210653e-01 5.941606e-01 9.204980e+00 112 112 115
-1.101192e+00 5.458144e-01 9.464629e+00 40 44 48
-1.032857e+00 5.726905e-01 9.351439e+00 164 162 161
-1.472830e+00 5.132054e-01 9.684555e+00 79 73 78
-1.354325e+00 5.501862e-01 9.533640e+00 52 55 54
-1.616261e+00 5.100868e-01 9.743563e+00 41 40 42
-1.427572e+00 5.802543e-01 9.457103e+00 170 166 161
-2.463180e+00 8.004944e-01 1.017375e+01 62 51 47
-3.674368e+00 6.716725e-01 9.599914e+00 165 158 146
-3.925047e+00 7.206621e-01 9.509178e+00 86 88 85
-3.979820e+00 7.680088e-01 9.375482e+00 162 158 145
-2.321231e+00 1.210263e+00 1.006770e+01 55 44 32
-2.321231e+00 1.210263e+00 1.006770e+01 55 44 32
-2.463381e+00 1.335958e+00 1.045205e+01 18 18 18
