ply
format ascii 1.0
element face 0
property list uchar int vertex_indices
element vertex 939
property float x
property float y
property float z
property uchar diffuse_red
property uchar diffuse_green
property uchar diffuse_blue
end_header
-2.001357e+00 1.840043e-02 1.195637e+01 51 51 76
-1.922849e+00 4.806995e-02 1.196126e+01 172 174 159
-2.230761e+00 1.038941e+00 1.034692e+01 74 66 60
-1.991128e+00 1.338233e-02 1.197920e+01 168 171 156
-1.991128e+00 1.338233e-02 1.197920e+01 168 171 156
-1.929546e+00 2.069382e-03 1.203390e+01 171 171 162
-4.117542e+00 9.209299e-01 9.498883e+00 194 193 189
-2.264875e+00 1.013377e+00 1.039098e+01 87 77 73
-2.264875e+00 1.013377e+00 1.039098e+01 87 77 73
-4.197657e+00 9.271175e-01 9.473584e+00 192 188 186
-4.153626e+00 8.865979e-01 9.573142e+00 192 192 188
-4.153626e+00 8.865979e-01 9.573142e+00 192 192 188
-2.232105e+00 1.074139e+00 1.034633e+01 68 57 53
-4.183641e+00 8.997156e-01 9.557952e+00 192 192 192
-4.207600e+00 9.175805e-01 9.534092e+00 195 193 193
-2.097745e+00 -5.369545e-03 1.207528e+01 167 172 159
-2.249141e+00 1.099800e+00 1.037718e+01 84 74 73
-3.912800e+00 6.812706e-01 1.013726e+01 186 180 179
-2.237631e+00 2.159091e-02 1.201823e+01 170 173 159
-2.185273e+00 1.260878e+00 1.019852e+01 36 37 42
-4.102688e+00 7.274968e-01 1.004321e+01 186 181 178
-4.231743e+00 7.552113e-01 9.986208e+00 192 182 178
-4.099033e+00 7.094176e-01 1.012894e+01 182 176 177
-4.208301e+00 7.580089e-01 1.005292e+01 184 180 179
-4.341942e+00 7.512307e-01 1.002487e+01 183 178 174
-2.296169e+00 -8.834511e-02 1.237839e+01 43 48 65
-2.345304e+00 1.376569e+00 1.015876e+01 50 55 49
-2.255445e+00 1.395559e+00 1.020239e+01 47 52 52
-2.384892e+00 -1.298882e-01 1.254527e+01 56 55 76
-2.322208e+00 1.407192e+00 1.017149e+01 50 56 52
-1.779009e+00 -2.854743e-01 1.308775e+01 159 162 145
-2.211875e+00 1.417411e+00 1.022970e+01 48 53 49
-2.492380e+00 -1.178838e-01 1.255770e+01 168 171 165
-2.593674e+00 -1.329172e-01 1.256608e+01 173 170 165
-2.652514e+00 -1.417214e-01 1.257545e+01 171 171 163
-1.773510e+00 -3.809325e-01 1.340058e+01 53 39 71
-2.772449e+00 -1.398795e-01 1.255374e+01 180 174 169
-1.807532e+00 -3.769906e-01 1.339135e+01 47 44 72
-2.845843e+00 -1.336975e-01 1.253644e+01 181 176 177
-2.845843e+00 -1.336975e-01 1.253644e+01 181 176 177
-1.825783e+00 -3.678964e-01 1.338343e+01 156 164 142
-2.901147e+00 -1.097533e-01 1.249627e+01 177 175 168
-2.939452e+00 -6.212868e-02 1.242035e+01 181 180 174
-2.949146e+00 -9.898925e-02 1.251188e+01 179 179 171
-2.949146e+00 -9.898925e-02 1.251188e+01 179 179 171
-2.130896e+00 -3.146197e-01 1.325143e+01 46 44 62
-2.162861e+00 1.522411e+00 1.027578e+01 41 41 48
-1.830545e+00 -4.255196e-01 1.357813e+01 155 153 141
-2.164687e+00 1.535408e+00 1.029150e+01 135 135 138
-3.117981e+00 -1.535364e-01 1.272605e+01 189 181 186
-2.248339e+00 1.576643e+00 1.026027e+01 121 122 124
-2.248339e+00 1.576643e+00 1.026027e+01 121 122 124
-3.241986e+00 -1.045476e-01 1.262899e+01 183 183 183
-4.917183e+00 5.794120e-01 1.083315e+01 117 121 116
-3.401451e+00 -1.384015e-01 1.266362e+01 187 181 171
-2.922907e+00 -2.316278e-01 1.303411e+01 44 37 55
-5.045856e+00 6.072061e-01 1.076318e+01 144 144 138
-5.045856e+00 6.072061e-01 1.076318e+01 144 144 138
-3.150956e+00 -2.098319e-01 1.293511e+01 180 176 173
-2.277138e+00 1.649039e+00 1.025857e+01 59 66 65
-2.548360e+00 -3.341022e-01 1.348602e+01 167 169 157
-3.533670e+00 -1.648862e-01 1.283836e+01 53 51 72
-2.185307e+00 1.658222e+00 1.030946e+01 49 55 60
-2.971224e+00 -3.218311e-01 1.340084e+01 54 78 65
-3.179030e+00 -4.078301e-01 1.354169e+01 38 44 42
-3.046827e+00 -3.544712e-01 1.349563e+01 38 52 49
-3.156833e+00 -3.586242e-01 1.347089e+01 46 49 43
-3.860357e+00 -1.642405e-01 1.286881e+01 183 179 181
-3.166776e+00 -3.194351e-01 1.341814e+01 171 169 148
-3.949207e+00 -1.645326e-01 1.289281e+01 185 179 181
-3.352084e+00 -3.167316e-01 1.347906e+01 173 174 164
-3.922025e+00 -2.446036e-01 1.330253e+01 109 109 106
-3.711242e+00 -3.576701e-01 1.367658e+01 55 64 56
-2.652758e+00 -5.730506e-01 1.442673e+01 61 67 58
-3.699100e+00 -3.900769e-01 1.375426e+01 30 35 29
-3.293659e+00 -4.830064e-01 1.412191e+01 121 122 131
-2.318457e+00 1.852491e+00 1.029489e+01 54 58 55
-4.049971e+00 -4.005714e-01 1.379294e+01 118 116 120
-2.221403e+00 1.856887e+00 1.035203e+01 48 54 50
-2.285293e+00 1.866808e+00 1.032602e+01 44 55 49
-2.277216e+00 1.893858e+00 1.033083e+01 51 57 52
-2.252443e+00 1.888344e+00 1.034549e+01 49 54 50
-4.706657e+00 -3.346648e-01 1.361220e+01 123 123 113
-4.790270e+00 -3.772738e-01 1.384523e+01 93 101 68
-4.674569e+00 -4.752581e-01 1.428680e+01 176 174 175
-2.186448e+00 1.886816e+00 1.059534e+01 61 59 47
-4.607744e+00 -5.503806e-01 1.457642e+01 195 195 213
-2.142251e+00 2.058084e+00 1.057596e+01 51 50 34
-2.251517e+00 2.029426e+00 1.080889e+01 62 58 49
-2.279009e+00 2.049141e+00 1.087378e+01 65 61 50
-2.279009e+00 2.049141e+00 1.087378e+01 65 61 50
-2.107311e+00 2.268725e+00 1.055876e+01 127 111 85
-1.960977e+00 1.089954e+00 8.305804e+00 66 61 78
-7.849974e-01 4.801250e-01 9.962335e+00 101 111 109
-2.243703e+00 1.243541e+00 7.961820e+00 90 64 97
-2.232042e+00 1.231336e+00 7.996365e+00 73 58 72
-2.365253e+00 1.274449e+00 7.908844e+00 86 72 92
-2.365253e+00 1.274449e+00 7.908844e+00 86 72 92
-9.053464e-01 5.263670e-01 9.898275e+00 125 41 29
-2.297270e+00 1.212406e+00 8.031946e+00 72 57 92
-2.162841e+00 1.130910e+00 8.247748e+00 65 61 67
-2.204708e+00 1.141211e+00 8.230250e+00 58 56 62
-2.380417e+00 1.246684e+00 7.986543e+00 75 61 80
-2.380417e+00 1.246684e+00 7.986543e+00 75 61 80
-2.493575e+00 1.265042e+00 7.946282e+00 162 157 162
-2.493575e+00 1.265042e+00 7.946282e+00 162 157 162
-2.407089e+00 1.187989e+00 8.145007e+00 49 31 51
-2.448187e+00 1.204393e+00 8.127962e+00 68 60 63
-2.448187e+00 1.204393e+00 8.127962e+00 68 60 63
-5.411641e-01 1.924486e-01 1.079948e+01 78 59 78
-2.575536e+00 1.253482e+00 8.076189e+00 167 163 162
-6.706648e-01 2.124888e-01 1.078111e+01 141 150 111
-2.691755e+00 1.282698e+00 8.014486e+00 52 46 57
-1.185927e+00 4.502445e-01 1.016906e+01 183 185 188
-2.817111e+00 1.283546e+00 7.983160e+00 163 164 141
-2.182974e+00 9.332429e-01 8.883807e+00 181 183 172
-2.236985e+00 9.451537e-01 8.864257e+00 71 67 102
-8.916060e-01 2.271480e-01 1.078335e+01 67 58 100
-1.143260e+00 3.381099e-01 1.050208e+01 44 43 45
-9.076524e-01 2.222217e-01 1.081829e+01 56 49 63
-9.076524e-01 2.222217e-01 1.081829e+01 56 49 63
-1.145813e+00 3.428455e-01 1.051262e+01 156 161 127
-1.368749e+00 4.043686e-01 1.038591e+01 66 62 99
-2.868144e+00 1.095444e+00 8.555335e+00 54 54 72
-1.492416e+00 3.640341e-01 1.050422e+01 50 42 72
-3.239729e+00 1.250507e+00 8.210086e+00 47 40 67
-1.543423e+00 3.676903e-01 1.049460e+01 61 54 81
-8.310959e-01 6.747459e-02 1.137946e+01 53 48 73
-8.310959e-01 6.747459e-02 1.137946e+01 53 48 73
-3.093368e+00 1.180498e+00 8.425506e+00 43 43 57
-3.111605e+00 1.148371e+00 8.480241e+00 37 40 55
-3.215474e+00 1.170713e+00 8.440242e+00 59 49 69
-1.509658e+00 3.005801e-01 1.071912e+01 41 40 48
-1.553149e+00 3.288479e-01 1.065925e+01 54 51 76
-1.553149e+00 3.288479e-01 1.065925e+01 54 51 76
-3.516746e+00 1.307581e+00 8.089155e+00 75 63 86
-3.516746e+00 1.307581e+00 8.089155e+00 75 63 86
-1.578266e+00 3.380550e-01 1.064437e+01 51 48 82
-3.353464e+00 1.221983e+00 8.326144e+00 45 45 61
-1.564905e+00 2.917734e-01 1.076857e+01 44 42 61
-1.624509e+00 3.058315e-01 1.071702e+01 75 74 102
-1.568554e+00 2.413627e-01 1.092024e+01 57 55 92
-8.234937e-01 -4.328173e-02 1.181723e+01 72 49 93
-3.697399e+00 1.277615e+00 8.262346e+00 87 71 98
-1.704924e+00 2.420191e-01 1.097073e+01 114 115 128
-1.554921e+00 1.757576e-01 1.118086e+01 57 53 81
-1.554921e+00 1.757576e-01 1.118086e+01 57 53 81
-1.537695e+00 1.440873e-01 1.127116e+01 55 53 91
-1.661661e+00 1.823822e-01 1.118315e+01 170 173 176
-3.509168e+00 1.061040e+00 8.853461e+00 89 87 75
-2.211836e+00 7.780378e-01 1.005962e+01 56 58 53
-3.486463e+00 1.025448e+00 8.968263e+00 64 70 68
-3.493086e+00 1.018786e+00 8.985278e+00 66 66 76
-3.469296e+00 1.029614e+00 8.982748e+00 66 66 76
-3.619454e+00 1.098689e+00 8.799975e+00 215 203 206
-3.622314e+00 1.055094e+00 8.921667e+00 85 84 82
-2.292577e+00 8.764344e-01 1.004646e+01 47 49 48
-3.947278e+00 1.164439e+00 8.696824e+00 158 147 144
-1.936288e+00 1.596550e-01 1.132785e+01 46 48 86
-3.456075e+00 8.636647e-01 9.451449e+00 99 102 100
-1.172966e+00 -1.063965e-01 1.219594e+01 52 49 77
-1.172966e+00 -1.063965e-01 1.219594e+01 52 49 77
-2.320377e+00 9.473902e-01 1.005868e+01 117 122 117
-2.314592e+00 9.509616e-01 1.005609e+01 117 122 117
-1.097440e+00 -1.753247e-01 1.235760e+01 55 42 63
-1.238515e+00 -8.651804e-02 1.216762e+01 58 53 88
-2.297702e+00 9.723893e-01 1.008416e+01 53 54 56
-3.737948e+00 9.469029e-01 9.288226e+00 53 62 72
-2.341648e+00 9.885805e-01 1.005637e+01 55 57 58
-1.896150e+00 1.149988e-01 1.153823e+01 173 182 158
-2.273113e+00 1.004775e+00 1.008896e+01 54 55 55
-1.225647e+00 -1.214912e-01 1.228103e+01 147 154 129
-1.990356e+00 1.402042e-01 1.147613e+01 57 60 81
-4.364618e+00 1.325954e+00 8.417721e+00 102 88 69
-3.842920e+00 9.591015e-01 9.268660e+00 51 53 58
-1.526249e+00 -2.597538e-02 1.203087e+01 157 166 140
-2.423582e+00 1.036281e+00 1.001918e+01 53 58 54
-2.423582e+00 1.036281e+00 1.001918e+01 53 58 54
-4.597403e+00 1.321207e+00 8.357320e+00 113 91 56
-2.339565e+00 1.042419e+00 1.006428e+01 53 57 53
-1.603799e+00 -1.776347e-02 1.200556e+01 161 168 139
-3.982709e+00 9.981786e-01 9.200162e+00 65 66 68
-4.434154e+00 1.233476e+00 8.607322e+00 114 92 52
-4.434154e+00 1.233476e+00 8.607322e+00 114 92 52
-1.455388e+00 -7.608580e-02 1.218744e+01 161 168 141
-1.455388e+00 -7.608580e-02 1.218744e+01 161 168 141
-4.459829e+00 1.227679e+00 8.633220e+00 116 102 97
-1.824927e+00 2.535545e-02 1.190411e+01 38 37 49
-2.271305e+00 1.120888e+00 1.011147e+01 53 59 59
-1.506745e+00 -9.992551e-02 1.229978e+01 61 58 83
-1.917095e+00 4.441068e-02 1.187208e+01 165 170 144
-3.969189e+00 8.891462e-01 9.541982e+00 113 116 121
-2.399666e+00 1.136541e+00 1.006140e+01 50 54 48
-1.645920e+00 -8.142403e-02 1.224914e+01 51 52 78
-4.011760e+00 9.047521e-01 9.515641e+00 116 121 119
-3.928553e+00 8.598035e-01 9.628306e+00 133 137 136
-3.928553e+00 8.598035e-01 9.628306e+00 133 137 136
-2.090645e+00 7.794938e-02 1.178415e+01 167 170 161
-4.904454e+00 1.338178e+00 8.399126e+00 125 107 76
-4.068022e+00 8.982146e-01 9.506882e+00 124 129 129
-1.906806e+00 1.318034e-03 1.201139e+01 52 51 78
-4.036544e+00 8.768723e-01 9.560880e+00 194 191 188
-2.129246e+00 6.124169e-02 1.181751e+01 32 35 44
-2.182049e+00 8.224680e-02 1.177076e+01 168 174 156
-1.861453e+00 -2.977187e-02 1.211498e+01 62 55 92
-4.055145e+00 9.037387e-01 9.557637e+00 109 113 119
-4.055145e+00 9.037387e-01 9.557637e+00 109 113 119
-1.870870e+00 -4.877493e-02 1.215389e+01 158 164 135
-1.892931e+00 -3.901803e-02 1.214062e+01 165 169 144
-2.222535e+00 1.118639e+00 1.034005e+01 69 59 57
-3.778245e+00 6.994712e-01 1.015058e+01 182 178 169
-2.285668e+00 1.233088e+00 1.015041e+01 93 96 93
-2.229179e+00 1.236199e+00 1.017791e+01 49 52 55
-2.178956e+00 1.240439e+00 1.020361e+01 100 101 105
-2.284510e+00 2.998460e-02 1.197559e+01 57 56 76
-2.280033e+00 1.971864e-02 1.200502e+01 170 173 154
-2.348827e+00 1.256196e+00 1.012303e+01 49 51 47
-2.243663e+00 1.258422e+00 1.018374e+01 43 45 49
-1.484744e+00 -2.700114e-01 1.290245e+01 57 46 81
-1.522762e+00 -2.533509e-01 1.287440e+01 151 159 127
-4.141753e+00 7.467280e-01 1.001445e+01 181 182 171
-1.551164e+00 -2.526456e-01 1.286621e+01 151 152 139
-2.286096e+00 1.080461e+00 1.047959e+01 73 70 62
-2.286096e+00 1.080461e+00 1.047959e+01 73 70 62
-4.092355e+00 6.999517e-01 1.016568e+01 93 101 102
-4.218094e+00 7.196262e-01 1.014250e+01 183 178 174
-2.942738e+00 6.500493e-02 1.194450e+01 41 41 46
-2.304689e+00 1.398506e+00 1.018711e+01 46 50 48
-2.971025e+00 7.021474e-02 1.196536e+01 42 44 60
-2.971025e+00 7.021474e-02 1.196536e+01 42 44 60
-1.885134e+00 -2.732411e-01 1.302983e+01 54 54 75
-1.862284e+00 -2.769704e-01 1.305381e+01 55 51 81
-1.862284e+00 -2.769704e-01 1.305381e+01 55 51 81
-2.465894e+00 -1.650736e-01 1.267950e+01 65 69 79
-2.627254e+00 -1.334100e-01 1.259071e+01 61 62 83
-2.621437e+00 -1.412030e-01 1.261671e+01 168 168 155
-6.193966e+00 1.340887e+00 8.619238e+00 126 119 93
-6.193966e+00 1.340887e+00 8.619238e+00 126 119 93
-2.799998e+00 -1.170039e-01 1.251683e+01 179 176 171
-1.955291e+00 -3.348029e-01 1.329569e+01 43 44 65
-1.955291e+00 -3.348029e-01 1.329569e+01 43 44 65
-2.511776e+00 -1.908785e-01 1.282009e+01 62 65 82
-1.777395e+00 -4.349365e-01 1.356193e+01 87 89 72
-1.777395e+00 -4.349365e-01 1.356193e+01 87 89 72
-6.214938e+00 1.281056e+00 8.793482e+00 123 118 86
-6.214938e+00 1.281056e+00 8.793482e+00 123 118 86
-2.250364e+00 1.498636e+00 1.024470e+01 46 51 54
-2.023551e+00 -3.230500e-01 1.328209e+01 160 165 147
-3.057978e+00 -6.004023e-02 1.240434e+01 177 177 166
-6.287103e+00 1.295711e+00 8.765532e+00 130 115 97
-3.096145e+00 -6.063216e-02 1.239291e+01 183 173 181
-2.114474e+00 -3.189207e-01 1.326023e+01 154 167 134
-2.325005e+00 1.539148e+00 1.019659e+01 107 109 108
-2.325005e+00 1.539148e+00 1.019659e+01 107 109 108
-3.202748e+00 -5.677686e-02 1.241801e+01 181 179 169
-1.941194e+00 -4.000706e-01 1.354328e+01 139 141 121
-6.252785e+00 1.202489e+00 9.023588e+00 130 118 86
-6.252785e+00 1.202489e+00 9.023588e+00 130 118 86
-2.779944e+00 -1.503211e-01 1.277902e+01 180 176 175
-2.171906e+00 1.547516e+00 1.029216e+01 50 59 56
-2.109762e+00 -3.485852e-01 1.343446e+01 169 166 163
-2.348583e+00 1.561883e+00 1.021335e+01 136 135 134
-2.516876e+00 -2.677885e-01 1.314762e+01 169 171 154
-2.283677e+00 1.573669e+00 1.023235e+01 59 67 64
-2.389960e+00 1.573145e+00 1.019129e+01 115 118 117
-2.264905e+00 -3.641101e-01 1.344417e+01 170 169 160
-3.053312e+00 -1.732335e-01 1.280293e+01 69 71 87
-2.256752e+00 -3.382578e-01 1.343761e+01 170 173 162
-3.178132e+00 -1.551231e-01 1.276653e+01 179 181 168
-3.178132e+00 -1.551231e-01 1.276653e+01 179 181 168
-2.440063e+00 -2.912947e-01 1.330865e+01 172 166 159
-3.432977e+00 -1.232391e-01 1.263754e+01 178 173 163
-2.964329e+00 -2.247609e-01 1.300505e+01 37 36 44
-2.964329e+00 -2.247609e-01 1.300505e+01 37 36 44
-2.558231e+00 -3.331386e-01 1.336131e+01 175 170 168
-2.183652e+00 1.616997e+00 1.030568e+01 124 125 125
-2.225236e+00 1.622944e+00 1.028594e+01 67 68 70
-3.179259e+00 -2.033449e-01 1.294907e+01 49 52 69
-3.179259e+00 -2.033449e-01 1.294907e+01 49 52 69
-3.263776e+00 -1.964800e-01 1.293139e+01 48 56 80
-3.263776e+00 -1.964800e-01 1.293139e+01 48 56 80
-2.203024e+00 1.641458e+00 1.028663e+01 51 58 60
-3.317778e+00 -1.957489e-01 1.292196e+01 47 55 72
-3.371045e+00 -1.904733e-01 1.290606e+01 51 56 68
-3.371045e+00 -1.904733e-01 1.290606e+01 51 56 68
-3.328290e+00 -1.766357e-01 1.290373e+01 181 181 177
-5.659553e+00 8.377020e-01 1.024821e+01 186 178 177
-3.406232e+00 -1.816601e-01 1.289257e+01 53 61 62
-3.406232e+00 -1.816601e-01 1.289257e+01 53 61 62
-2.356998e+00 1.678034e+00 1.022901e+01 115 118 119
-2.356998e+00 1.678034e+00 1.022901e+01 115 118 119
-2.280996e+00 1.689284e+00 1.028042e+01 110 111 112
-2.367257e+00 1.713299e+00 1.023088e+01 122 124 126
-2.171170e+00 1.697657e+00 1.033551e+01 77 79 82
-2.350605e+00 -4.574863e-01 1.398798e+01 93 95 95
-3.312091e+00 -2.949114e-01 1.335959e+01 169 167 157
-3.223457e+00 -3.273639e-01 1.346099e+01 76 77 81
-3.743544e+00 -2.089950e-01 1.308740e+01 141 133 130
-2.335985e+00 1.743336e+00 1.025945e+01 56 63 62
-3.783613e+00 -2.104101e-01 1.311531e+01 87 86 81
-6.228520e+00 7.471299e-01 1.055601e+01 145 139 115
-6.313444e+00 7.913012e-01 1.047225e+01 151 146 117
-2.602693e+00 -4.792357e-01 1.409167e+01 47 53 60
-3.881713e+00 -2.799247e-01 1.332979e+01 96 98 87
-2.233799e+00 1.790714e+00 1.031160e+01 47 54 53
-3.875534e+00 -2.812524e-01 1.335942e+01 177 177 164
-3.918544e+00 -2.847773e-01 1.341207e+01 99 106 90
-2.690687e+00 -5.111975e-01 1.425587e+01 121 121 126
-2.508075e+00 -5.832042e-01 1.446030e+01 73 74 68
-2.324097e+00 1.812875e+00 1.028634e+01 90 88 88
-2.324097e+00 1.812875e+00 1.028634e+01 90 88 88
-2.150092e+00 1.761826e+00 1.047985e+01 93 91 79
-2.150092e+00 1.761826e+00 1.047985e+01 93 91 79
-2.307777e+00 1.840433e+00 1.029480e+01 117 117 116
-2.204454e+00 1.831925e+00 1.035172e+01 49 58 53
-2.204454e+00 1.831925e+00 1.035172e+01 49 58 53
-6.482165e+00 5.765837e-01 1.115915e+01 139 145 71
-2.627320e+00 -6.344437e-01 1.464529e+01 163 154 153
-4.124283e+00 -3.875475e-01 1.381722e+01 60 64 44
-6.530206e+00 4.656047e-01 1.153538e+01 156 156 126
-6.530206e+00 4.656047e-01 1.153538e+01 156 156 126
-6.704220e+00 3.670352e-01 1.185261e+01 119 103 55
-4.212965e+00 -4.548051e-01 1.418210e+01 172 167 170
-4.942265e+00 -4.267410e-01 1.411371e+01 165 160 141
-2.248764e+00 2.035786e+00 1.039576e+01 147 170 221
-2.273938e+00 2.049017e+00 1.037782e+01 34 77 153
-2.122000e+00 2.214289e+00 1.057570e+01 109 94 78
-2.175324e+00 2.246936e+00 1.066052e+01 50 40 27
-2.125984e+00 1.115530e+00 8.253383e+00 149 153 112
-2.159115e+00 1.096678e+00 8.306453e+00 156 158 124
-8.965629e-01 4.585812e-01 1.005749e+01 100 104 94
-1.510930e+00 7.215852e-01 9.377360e+00 80 90 78
-2.487138e+00 1.216087e+00 8.110720e+00 75 70 70
-2.577561e+00 1.242416e+00 8.045194e+00 70 58 89
-2.587821e+00 1.237164e+00 8.069370e+00 81 68 74
-2.631727e+00 1.248160e+00 8.058945e+00 164 169 173
-2.629892e+00 1.213571e+00 8.115663e+00 76 71 103
-2.629892e+00 1.213571e+00 8.115663e+00 76 71 103
-7.104180e-01 2.331430e-01 1.070575e+01 152 153 156
-2.664678e+00 1.219913e+00 8.101232e+00 68 67 96
-2.201950e+00 9.572018e-01 8.853665e+00 185 183 182
-2.496860e+00 9.871905e-01 8.754135e+00 68 64 96
-2.476246e+00 1.000273e+00 8.753397e+00 68 64 96
-1.193831e+00 3.499280e-01 1.047542e+01 62 56 68
-1.193831e+00 3.499280e-01 1.047542e+01 62 56 68
-1.429651e+00 3.660236e-01 1.050362e+01 53 49 70
-3.518072e+00 1.331994e+00 8.039786e+00 179 168 179
-3.343919e+00 1.204789e+00 8.381915e+00 42 41 50
-1.476003e+00 2.394950e-01 1.092866e+01 62 58 92
-1.476003e+00 2.394950e-01 1.092866e+01 62 58 92
-8.336058e-01 -3.893893e-02 1.178021e+01 71 57 87
-3.544397e+00 1.227941e+00 8.386546e+00 187 172 184
-3.676380e+00 1.196306e+00 8.537586e+00 80 84 67
-1.227967e+00 4.254784e-02 1.163226e+01 51 49 57
-1.671273e+00 1.773682e-01 1.117049e+01 65 69 102
-1.671273e+00 1.773682e-01 1.117049e+01 65 69 102
-3.363687e+00 1.002273e+00 9.007440e+00 63 76 83
-3.916257e+00 1.296659e+00 8.273695e+00 97 81 85
-1.667067e+00 1.797885e-01 1.120392e+01 166 174 169
-3.741537e+00 1.199284e+00 8.530959e+00 184 180 166
-1.687084e+00 1.731895e-01 1.120494e+01 41 39 51
-3.727734e+00 1.230681e+00 8.499307e+00 76 74 75
-2.390704e+00 7.972930e-01 9.974072e+00 119 122 116
-2.390704e+00 7.972930e-01 9.974072e+00 119 122 116
-3.511072e+00 1.026902e+00 8.963911e+00 188 189 177
-3.909111e+00 1.240782e+00 8.442535e+00 91 80 87
-2.215767e+00 8.357285e-01 1.007269e+01 53 54 50
-3.511690e+00 1.005297e+00 9.036036e+00 77 75 110
-2.436780e+00 8.272183e-01 9.952314e+00 58 59 62
-2.436780e+00 8.272183e-01 9.952314e+00 58 59 62
-4.172295e+00 1.350542e+00 8.162838e+00 107 93 91
-4.172295e+00 1.350542e+00 8.162838e+00 107 93 91
-4.069751e+00 1.278824e+00 8.371229e+00 97 91 67
-2.349853e+00 6.067444e-01 1.035976e+01 45 41 43
-2.340818e+00 8.955777e-01 1.001262e+01 57 57 58
-2.423356e+00 8.902251e-01 9.982298e+00 121 124 114
-2.423356e+00 8.902251e-01 9.982298e+00 121 124 114
-4.156227e+00 1.286343e+00 8.385021e+00 111 92 97
-4.225054e+00 1.356533e+00 8.273633e+00 112 98 81
-1.962954e+00 1.709798e-01 1.129498e+01 179 178 188
-2.286579e+00 9.383471e-01 1.005878e+01 52 57 52
-2.316704e+00 9.343198e-01 1.005447e+01 56 60 62
-2.316704e+00 9.343198e-01 1.005447e+01 56 60 62
-2.348247e+00 9.396586e-01 1.004086e+01 54 56 53
-3.471086e+00 8.584710e-01 9.479969e+00 128 126 136
-4.466131e+00 1.359974e+00 8.195639e+00 110 101 85
-2.192578e+00 9.773043e-01 1.012335e+01 124 129 122
-2.408780e+00 9.652884e-01 1.001554e+01 126 126 124
-2.275223e+00 9.732820e-01 1.008937e+01 54 54 57
-2.440518e+00 9.754327e-01 9.994950e+00 133 131 131
-2.196539e+00 9.903397e-01 1.012434e+01 54 56 52
-1.813423e+00 8.438712e-02 1.163702e+01 60 63 95
-1.813423e+00 8.438712e-02 1.163702e+01 60 63 95
-2.288336e+00 1.015423e+00 1.007554e+01 51 56 53
-2.525293e+00 4.917572e-01 1.068659e+01 39 39 30
-1.461753e+00 -5.430494e-02 1.210929e+01 166 169 167
-2.371964e+00 1.048369e+00 1.005045e+01 55 60 54
-4.663631e+00 1.336586e+00 8.323271e+00 99 95 47
-3.917054e+00 9.879446e-01 9.253085e+00 59 60 79
-4.733410e+00 1.343803e+00 8.280889e+00 174 164 148
-2.220481e+00 1.061697e+00 1.013245e+01 121 122 123
-4.651937e+00 1.325611e+00 8.379195e+00 116 93 86
-1.407794e+00 -1.177212e-01 1.233147e+01 167 168 156
-1.407794e+00 -1.177212e-01 1.233147e+01 167 168 156
-1.775608e+00 -4.720784e-03 1.199223e+01 166 172 145
-1.644816e+00 -4.938436e-02 1.212886e+01 57 56 80
-1.644816e+00 -4.938436e-02 1.212886e+01 57 56 80
-1.675787e+00 -3.639777e-02 1.209876e+01 172 167 167
-4.692864e+00 1.288129e+00 8.495890e+00 118 98 84
-4.776192e+00 1.331541e+00 8.412819e+00 187 165 163
-1.814033e+00 -2.687040e-02 1.207252e+01 57 57 82
-1.814033e+00 -2.687040e-02 1.207252e+01 57 57 82
-2.385645e+00 1.143239e+00 1.006999e+01 124 125 121
-2.385645e+00 1.143239e+00 1.006999e+01 124 125 121
-2.386688e+00 1.150340e+00 1.008213e+01 51 55 52
-1.946915e+00 4.051964e-03 1.199928e+01 174 174 169
-1.989168e+00 1.206508e-03 1.200861e+01 58 61 75
-4.257870e+00 9.508002e-01 9.431898e+00 193 192 189
-2.185987e+00 1.201490e+00 1.019191e+01 57 63 63
-2.218540e+00 4.645451e-02 1.188957e+01 40 46 49
-2.238435e+00 6.896242e-02 1.186080e+01 72 73 93
-4.259366e+00 9.319400e-01 9.499494e+00 190 190 187
-2.250295e+00 7.399348e-02 1.186397e+01 175 170 175
-1.643618e+00 -1.843052e-01 1.264582e+01 59 59 78
-1.643618e+00 -1.843052e-01 1.264582e+01 59 59 78
-2.304554e+00 2.050249e-02 1.201369e+01 62 62 90
-4.221696e+00 7.269738e-01 1.010924e+01 102 102 103
-4.268514e+00 7.405281e-01 1.008825e+01 105 107 109
-4.268514e+00 7.405281e-01 1.008825e+01 105 107 109
-4.235155e+00 7.330310e-01 1.012365e+01 183 180 173
-4.329463e+00 7.648585e-01 1.004564e+01 101 107 108
-4.329463e+00 7.648585e-01 1.004564e+01 101 107 108
-4.927859e+00 1.088385e+00 9.272171e+00 180 171 170
-4.453157e+00 7.818603e-01 1.000297e+01 109 110 115
-2.256152e+00 1.370485e+00 1.021122e+01 94 96 92
-1.782327e+00 -2.840075e-01 1.305523e+01 58 51 85
-1.757172e+00 -2.828920e-01 1.307137e+01 78 81 113
-1.757172e+00 -2.828920e-01 1.307137e+01 78 81 113
-1.777928e+00 -3.126026e-01 1.313204e+01 41 43 56
-6.131609e+00 1.344983e+00 8.534341e+00 124 111 92
-2.073821e+00 -2.534052e-01 1.298868e+01 155 163 151
-2.087659e+00 -2.542203e-01 1.298484e+01 59 62 79
-3.071232e+00 2.781225e-02 1.211916e+01 54 61 70
-2.655618e+00 -1.378635e-01 1.260864e+01 169 170 158
-2.863820e+00 -8.537245e-02 1.243039e+01 163 169 145
-1.892978e+00 -3.501448e-01 1.332455e+01 48 46 61
-2.503316e+00 -1.929266e-01 1.283828e+01 160 165 142
-6.248748e+00 1.288200e+00 8.756624e+00 71 68 59
-2.897372e+00 -1.051180e-01 1.252322e+01 65 65 85
-3.192243e+00 -5.530368e-02 1.232207e+01 176 176 177
-2.602687e+00 -1.997264e-01 1.283647e+01 67 70 89
-3.092060e+00 -6.368598e-02 1.241872e+01 68 73 85
-1.942846e+00 -3.765092e-01 1.344449e+01 58 57 80
-3.119343e+00 -8.014834e-02 1.246419e+01 67 72 78
-1.943322e+00 -3.816368e-01 1.349947e+01 93 90 95
-3.219805e+00 -5.304271e-02 1.239976e+01 77 80 84
-2.723308e+00 -1.705457e-01 1.281042e+01 176 172 168
-2.723308e+00 -1.705457e-01 1.281042e+01 176 172 168
-2.917231e+00 -1.502290e-01 1.269765e+01 66 72 87
-2.329337e+00 -2.989818e-01 1.321070e+01 63 65 92
-1.955396e+00 -3.832242e-01 1.352421e+01 85 81 95
-2.768555e+00 -1.910820e-01 1.286128e+01 69 68 96
-2.763611e+00 -1.973260e-01 1.288523e+01 162 166 149
-2.903876e+00 -1.827261e-01 1.280481e+01 173 173 165
-3.066750e+00 -1.334763e-01 1.266490e+01 71 70 84
-2.173586e+00 1.549667e+00 1.030849e+01 75 75 75
-2.187995e+00 -3.540230e-01 1.343297e+01 164 163 160
-2.230894e+00 -3.188404e-01 1.336935e+01 164 166 159
-3.218753e+00 -1.164818e-01 1.261724e+01 68 74 92
-2.147914e+00 -4.339837e-01 1.360116e+01 162 155 157
-6.450103e+00 1.230286e+00 9.008583e+00 121 112 93
-2.145529e+00 -3.693200e-01 1.350689e+01 166 161 161
-2.639885e+00 -2.619997e-01 1.311794e+01 161 166 142
-2.298236e+00 -3.109014e-01 1.335604e+01 172 168 167
-2.175874e+00 -3.620279e-01 1.349445e+01 166 165 166
-2.342557e+00 -3.407541e-01 1.339247e+01 174 167 168
-2.181976e+00 -3.251749e-01 1.343999e+01 165 164 167
-3.407558e+00 -8.407478e-02 1.252358e+01 58 61 76
-2.355209e+00 -3.015803e-01 1.333616e+01 172 169 166
-2.355209e+00 -3.015803e-01 1.333616e+01 172 169 166
-2.320058e+00 1.601124e+00 1.021003e+01 117 118 121
-2.320058e+00 1.601124e+00 1.021003e+01 117 118 121
-2.320842e+00 -3.742470e-01 1.349304e+01 165 163 159
-3.270832e+00 -1.404295e-01 1.272258e+01 76 79 92
-2.389486e+00 -3.724414e-01 1.347784e+01 165 165 163
-3.496847e+00 -8.306850e-02 1.253768e+01 55 66 67
-2.593515e+00 -3.239100e-01 1.333608e+01 171 166 166
-2.593515e+00 -3.239100e-01 1.333608e+01 171 166 166
-2.440446e+00 -3.231699e-01 1.339978e+01 172 169 166
-2.440446e+00 -3.231699e-01 1.339978e+01 172 169 166
-3.481763e+00 -9.875650e-02 1.259124e+01 179 176 173
-3.481763e+00 -9.875650e-02 1.259124e+01 179 176 173
-3.394373e+00 -1.012992e-01 1.263186e+01 80 82 95
-2.480157e+00 -3.229522e-01 1.339543e+01 169 166 164
-2.480157e+00 -3.229522e-01 1.339543e+01 169 166 164
-2.334482e+00 -3.254501e-01 1.346552e+01 170 166 162
-2.402056e+00 -3.854645e-01 1.354438e+01 170 167 163
-2.402056e+00 -3.854645e-01 1.354438e+01 170 167 163
-3.445004e+00 -1.196147e-01 1.266974e+01 174 178 168
-3.203625e+00 -2.059317e-01 1.292870e+01 183 176 170
-2.469372e+00 -3.464384e-01 1.347530e+01 170 165 161
-2.148352e+00 1.628589e+00 1.031717e+01 47 51 57
-2.896310e+00 -2.336423e-01 1.313276e+01 53 63 64
-3.476026e+00 -1.684353e-01 1.284292e+01 58 58 60
-2.597213e+00 -3.366187e-01 1.349187e+01 168 169 166
-2.643059e+00 -3.096773e-01 1.344724e+01 171 169 166
-2.673955e+00 -3.182351e-01 1.345591e+01 172 171 167
-5.787354e+00 8.368256e-01 1.028403e+01 130 146 81
-2.207650e+00 1.677501e+00 1.031361e+01 136 140 140
-2.207650e+00 1.677501e+00 1.031361e+01 136 140 140
-5.786442e+00 6.693304e-01 1.074867e+01 142 140 117
-5.786442e+00 6.693304e-01 1.074867e+01 142 140 117
-5.809759e+00 6.848279e-01 1.072242e+01 149 141 117
-6.049829e+00 7.522104e-01 1.058008e+01 144 137 112
-2.323303e+00 1.757714e+00 1.026525e+01 129 131 130
-2.323303e+00 1.757714e+00 1.026525e+01 129 131 130
-3.512154e+00 -3.084472e-01 1.346196e+01 181 179 183
-4.610229e+00 -1.551535e-01 1.295711e+01 123 111 82
-6.176983e+00 5.488400e-01 1.117993e+01 158 165 132
-6.176983e+00 5.488400e-01 1.117993e+01 158 165 132
-4.464020e+00 -8.107138e-02 1.292330e+01 56 60 30
-2.326470e+00 1.842658e+00 1.029179e+01 52 57 53
-2.292869e+00 1.858602e+00 1.031479e+01 121 125 119
-2.292869e+00 1.858602e+00 1.031479e+01 121 125 119
-2.309790e+00 1.862384e+00 1.030583e+01 127 129 127
-2.309790e+00 1.862384e+00 1.030583e+01 127 129 127
-4.717167e+00 -1.875497e-01 1.322957e+01 153 154 149
-6.352819e+00 4.110644e-01 1.163933e+01 151 151 129
-6.274089e+00 4.189265e-01 1.164782e+01 154 154 123
-6.274089e+00 4.189265e-01 1.164782e+01 154 154 123
-6.398486e+00 4.270710e-01 1.161190e+01 156 155 126
-4.423996e+00 -3.318501e-01 1.364202e+01 42 50 42
-2.363256e+00 1.900482e+00 1.028717e+01 140 140 140
-6.685979e+00 5.216680e-01 1.142828e+01 155 150 119
-6.685979e+00 5.216680e-01 1.142828e+01 155 150 119
-2.213573e+00 1.898281e+00 1.036439e+01 42 42 42
-4.364828e+00 -5.388842e-01 1.438259e+01 30 64 108
-5.109061e+00 -4.118814e-01 1.410650e+01 102 106 91
-4.502657e+00 -6.259325e-01 1.477627e+01 106 96 86
-5.557062e+00 -3.280345e-01 1.392061e+01 100 104 99
-5.613217e+00 -3.255990e-01 1.390662e+01 99 104 97
-5.798264e+00 -3.584976e-01 1.394820e+01 98 107 96
-5.802055e+00 -3.267912e-01 1.389958e+01 115 125 116
-3.202154e-01 9.906393e-02 1.093019e+01 115 118 85
-2.182638e+00 9.326087e-01 8.894004e+00 184 182 188
-1.255792e+00 2.203576e-01 1.092678e+01 83 84 108
-3.327709e+00 1.188851e+00 8.399630e+00 90 85 114
-1.547974e+00 2.496839e-01 1.090975e+01 142 147 129
-1.675029e+00 2.986328e-01 1.077246e+01 80 79 86
-1.675029e+00 2.986328e-01 1.077246e+01 80 79 86
-3.281620e+00 1.065302e+00 8.770260e+00 87 89 112
-3.322727e+00 1.074812e+00 8.753722e+00 108 107 119
-3.917014e+00 1.341794e+00 8.107338e+00 107 83 103
-1.256090e+00 6.612647e-02 1.153872e+01 66 69 91
-2.375421e+00 7.225882e-01 9.963925e+00 61 65 59
-3.528288e+00 1.054212e+00 8.837183e+00 95 93 99
-4.062695e+00 1.277348e+00 8.381904e+00 181 163 168
-4.208600e+00 1.317172e+00 8.296606e+00 169 172 156
-4.225110e+00 1.308632e+00 8.311878e+00 172 161 152
-4.225110e+00 1.308632e+00 8.311878e+00 172 161 152
-4.280222e+00 1.315049e+00 8.309801e+00 114 105 86
-2.289755e+00 9.593515e-01 1.005384e+01 129 130 124
-3.657132e+00 9.180953e-01 9.349124e+00 67 73 93
-2.442924e+00 1.023942e+00 1.001204e+01 132 135 132
-4.568105e+00 1.311251e+00 8.394643e+00 116 100 72
-3.945326e+00 9.913995e-01 9.212639e+00 77 85 106
-3.685024e+00 8.390542e-01 9.603485e+00 102 101 111
-4.024806e+00 9.825008e-01 9.230091e+00 95 108 117
-4.956206e+00 1.374067e+00 8.332287e+00 173 177 170
-4.050770e+00 8.487957e-01 9.682458e+00 180 180 173
-4.395993e+00 1.027237e+00 9.245605e+00 123 121 108
-2.242255e+00 2.971341e-02 1.197277e+01 69 65 79
-4.024022e+00 7.040291e-01 1.010844e+01 73 76 75
-4.448083e+00 8.669410e-01 9.745213e+00 181 181 172
-4.329059e+00 8.098015e-01 9.899873e+00 180 176 173
-4.484303e+00 8.582970e-01 9.787097e+00 101 102 90
-4.351782e+00 7.581950e-01 1.003369e+01 174 172 159
-4.291207e+00 7.209651e-01 1.017078e+01 178 173 170
-4.357180e+00 7.016288e-01 1.017296e+01 180 176 173
-1.849079e+00 -4.128566e-01 1.356585e+01 131 134 113
-5.603618e+00 1.035023e+00 9.625804e+00 138 133 84
-2.088402e+00 -3.798386e-01 1.348374e+01 165 162 161
-4.921601e+00 6.532864e-01 1.059396e+01 189 190 190
-2.607371e+00 -2.988915e-01 1.327064e+01 104 104 114
-2.905501e+00 -2.610682e-01 1.309051e+01 62 68 78
-2.905501e+00 -2.610682e-01 1.309051e+01 62 68 78
-3.038720e+00 -2.237004e-01 1.299285e+01 152 145 141
-2.385525e+00 -3.442060e-01 1.348743e+01 169 165 160
-3.470165e+00 -1.065421e-01 1.264835e+01 171 173 163
-3.478419e+00 -1.255578e-01 1.268295e+01 104 109 110
-3.478419e+00 -1.255578e-01 1.268295e+01 104 109 110
-2.586481e+00 -3.433351e-01 1.343075e+01 87 97 94
-3.492417e+00 -1.788051e-01 1.288186e+01 57 67 60
-2.281757e+00 1.736024e+00 1.028335e+01 56 61 64
-2.218128e+00 1.729289e+00 1.033001e+01 45 46 51
-3.845669e+00 -2.303634e-01 1.310209e+01 122 121 119
-5.723945e+00 4.907369e-01 1.120395e+01 131 133 85
-2.362278e+00 1.761891e+00 1.024866e+01 129 129 130
-3.109645e+00 -4.466989e-01 1.394019e+01 78 79 74
-4.521700e+00 -1.189069e-01 1.290636e+01 117 81 55
-4.931631e+00 -1.948224e-01 1.320896e+01 146 146 148
-6.748005e+00 5.320690e-01 1.140223e+01 161 160 133
-6.674574e+00 4.231155e-01 1.176881e+01 142 135 107
-6.793816e+00 4.214202e-01 1.175472e+01 142 134 89
-6.835631e+00 3.788649e-01 1.183414e+01 173 161 148
-6.936915e+00 4.456508e-01 1.173668e+01 134 118 57
-4.359401e+00 -5.139520e-01 1.434758e+01 124 136 150
-4.423011e+00 -5.054930e-01 1.433484e+01 130 136 149
-4.581885e+00 -5.027405e-01 1.431617e+01 126 140 152
-4.581885e+00 -5.027405e-01 1.431617e+01 126 140 152
-4.571648e+00 -4.773618e-01 1.428516e+01 52 81 103
-2.199699e+00 1.997131e+00 1.039986e+01 42 74 136
-5.068061e+00 -3.810425e-01 1.410864e+01 176 171 156
-5.138139e+00 -4.724899e-01 1.429116e+01 150 148 116
-5.750188e+00 -3.647565e-01 1.396782e+01 111 121 112
-2.222304e+00 2.040338e+00 1.039680e+01 38 70 146
-2.102308e+00 1.144036e+00 8.245677e+00 59 50 54
-2.740501e+00 6.330400e-01 1.031370e+01 90 65 58
-4.796218e-01 5.188653e-01 9.920652e+00 60 66 57
-2.577458e+00 8.866465e-01 1.008270e+01 136 121 95
-8.962296e-01 5.958686e-01 9.697395e+00 51 57 47
-3.408571e-01 6.756646e-01 9.469549e+00 167 168 170
-2.889255e-01 6.178361e-01 9.567534e+00 42 45 39
-2.256203e+00 -8.389895e-01 1.499069e+01 170 168 171
-2.793933e+00 1.927592e+00 1.107989e+01 145 144 137
-1.494957e+00 9.279574e-01 8.740439e+00 144 150 130
-3.884817e+00 6.549911e-01 1.024242e+01 169 165 163
-4.189264e+00 5.928904e-01 1.049623e+01 78 72 67
-4.189264e+00 5.928904e-01 1.049623e+01 78 72 67
-2.930187e+00 1.014834e+00 1.090125e+01 63 55 46
-3.011501e+00 6.283196e-02 1.205528e+01 177 176 171
-5.569035e-01 1.765475e-01 1.085864e+01 180 185 188
-2.807443e+00 -4.708841e-02 1.235434e+01 174 173 169
-2.807443e+00 -4.708841e-02 1.235434e+01 174 173 169
2.432047e-03 6.258299e-02 1.120389e+01 109 111 108
2.686775e-02 -2.715886e-02 1.144776e+01 169 172 167
-3.691315e+00 8.474125e-01 9.581308e+00 41 28 37
-4.204550e+00 7.368947e-01 1.004486e+01 133 147 120
-4.204550e+00 7.368947e-01 1.004486e+01 133 147 120
-6.579353e-01 7.657633e-01 9.067039e+00 41 54 69
-2.594581e+00 1.018240e+00 1.017825e+01 124 89 59
-7.541140e-01 5.374492e-01 9.795552e+00 61 67 59
-2.585841e+00 -2.364071e-01 1.283964e+01 178 177 175
-2.585525e+00 -2.373516e-01 1.284011e+01 178 177 175
-3.814435e+00 8.632438e-01 9.562592e+00 173 172 169
-9.450380e-01 7.194206e-01 9.287893e+00 77 40 40
-4.850832e-01 6.868355e-01 9.396960e+00 34 37 31
-6.352851e-01 6.134233e-01 9.601735e+00 44 47 44
-2.719231e+00 1.131284e+00 1.043701e+01 132 120 91
-2.772702e+00 1.058743e+00 1.055333e+01 77 55 42
-1.106694e+00 3.373040e-01 1.052610e+01 175 178 181
-8.183513e-01 3.663023e-01 1.041083e+01 32 32 39
-8.228805e-01 3.786738e-01 1.044953e+01 185 186 190
-2.334233e-02 3.028819e-01 1.046552e+01 149 150 154
-3.313793e+00 -5.863978e-03 1.235936e+01 63 72 66
1.029891e-01 3.071691e-01 1.048352e+01 177 178 180
1.029891e-01 3.071691e-01 1.048352e+01 177 178 180
4.407961e-01 3.041227e-01 1.044490e+01 133 130 50
-2.612318e+00 -2.235651e-01 1.290106e+01 98 102 96
-3.811967e+00 -3.284940e-01 1.365873e+01 33 34 27
-2.721036e+00 -5.922439e-01 1.421402e+01 44 42 30
-1.944348e+00 -1.022425e+00 1.545821e+01 128 122 108
-1.767614e+00 1.009041e+00 8.400364e+00 53 55 61
-1.767614e+00 1.009041e+00 8.400364e+00 53 55 61
-2.342573e+00 9.871205e-01 8.761903e+00 165 167 163
-2.319867e+00 9.756763e-01 8.799432e+00 164 166 162
-2.595381e+00 8.079024e-01 1.009495e+01 92 66 49
-7.853448e-01 6.501977e-01 9.499583e+00 97 124 140
-9.366858e-01 6.110326e-01 9.667707e+00 30 30 32
-6.170715e-01 6.273839e-01 9.566365e+00 110 111 110
-9.853936e-01 5.545690e-01 9.843823e+00 176 177 170
-1.284007e+00 4.779731e-01 1.013016e+01 183 184 187
-5.947602e-01 5.638362e-01 9.749031e+00 170 168 169
-8.045336e-01 5.252377e-01 9.890899e+00 101 104 92
-5.369292e-01 5.820682e-01 9.714645e+00 24 38 59
-4.055188e-01 5.703915e-01 9.661909e+00 26 27 29
-1.254101e+00 4.718322e-01 1.016163e+01 30 31 33
-6.334584e-01 5.292263e-01 9.870038e+00 119 120 110
-2.618634e+00 1.204164e+00 1.028679e+01 140 132 105
-1.154642e+00 4.146770e-01 1.032399e+01 29 30 38
-2.834475e+00 1.009336e+00 1.067886e+01 145 132 107
-2.816155e+00 1.060579e+00 1.064348e+01 118 84 53
-2.509239e+00 1.399931e+00 1.018211e+01 77 58 54
-2.591338e+00 1.346577e+00 1.029119e+01 98 108 55
2.526830e-01 4.575612e-01 9.972604e+00 34 34 36
2.051367e-01 2.786233e-01 1.053314e+01 178 179 181
-3.317641e+00 -6.240942e-02 1.261116e+01 178 175 170
9.717774e-01 3.504416e-01 1.021158e+01 161 163 160
-2.853149e+00 -1.194551e-01 1.258502e+01 161 156 162
8.843191e-01 3.160581e-01 1.035010e+01 158 163 151
-2.749362e+00 -1.346678e-01 1.257450e+01 177 171 170
-2.749362e+00 -1.346678e-01 1.257450e+01 177 171 170
5.213984e-02 9.967312e-02 1.114528e+01 182 183 189
-3.060976e+00 -5.360850e-01 1.420094e+01 145 148 146
-3.654408e+00 9.022164e-01 9.387645e+00 38 28 53
-3.794683e+00 8.799047e-01 9.510873e+00 167 166 161
-1.740889e+00 9.916021e-01 8.440336e+00 38 33 49
-2.303474e+00 9.819549e-01 8.773275e+00 160 166 162
-2.239894e+00 9.695564e-01 8.801226e+00 165 169 164
-4.155890e+00 7.380549e-01 1.003620e+01 160 154 153
-4.247932e+00 7.186843e-01 1.014326e+01 160 160 154
-4.299846e+00 7.095027e-01 1.019459e+01 155 152 147
-1.483619e+00 8.994526e-01 8.770626e+00 163 167 169
-7.789902e-01 7.118766e-01 9.304650e+00 103 106 97
-2.693532e+00 7.896752e-01 1.026009e+01 161 141 119
-6.999277e-01 6.851995e-01 9.407485e+00 35 41 59
-2.555388e+00 1.030018e+00 1.010541e+01 92 69 60
-7.281751e-01 6.383430e-01 9.551584e+00 108 116 93
-1.080157e+00 5.602445e-01 9.849224e+00 61 61 65
-5.391332e-01 6.116943e-01 9.573564e+00 104 111 90
-3.939285e-01 6.459751e-01 9.477009e+00 143 149 126
-2.570325e+00 1.100450e+00 1.016407e+01 76 53 47
-1.403442e+00 4.590259e-01 1.025984e+01 35 32 54
-1.157838e+00 4.575847e-01 1.016074e+01 35 39 54
-9.611087e-01 4.739489e-01 1.006207e+01 35 51 64
-1.251685e+00 4.342020e-01 1.025714e+01 182 179 184
-1.251685e+00 4.342020e-01 1.025714e+01 182 179 184
-1.100330e+00 4.239516e-01 1.026661e+01 183 180 184
-1.109392e+00 4.342526e-01 1.025917e+01 183 180 184
-9.760324e-01 3.976852e-01 1.032585e+01 182 182 189
3.627629e-01 5.138202e-01 9.807017e+00 153 158 152
3.953672e-01 4.845011e-01 9.848216e+00 64 64 64
-2.940646e+00 8.975406e-02 1.195522e+01 178 174 171
-3.050937e+00 5.052528e-02 1.212477e+01 178 174 171
-2.788375e+00 1.381596e+00 1.074811e+01 146 138 133
-2.812771e+00 1.363667e+00 1.079530e+01 153 152 147
-1.413419e-01 1.857844e-01 1.086234e+01 39 37 54
8.472924e-01 3.556543e-01 1.020792e+01 124 126 80
-2.823030e+00 -1.091583e-01 1.252339e+01 177 179 172
-3.040562e+00 -1.662949e-01 1.279009e+01 177 178 172
-2.966812e+00 -1.950040e-01 1.284084e+01 180 176 176
-4.002001e+00 -1.896777e-01 1.332816e+01 168 167 162
-2.169730e+00 -5.227744e-01 1.371200e+01 177 174 176
-2.550695e+00 -8.475226e-01 1.511822e+01 104 109 103
-2.543886e+00 -8.705623e-01 1.515115e+01 104 109 103
-2.485056e+00 1.006452e+00 8.732578e+00 63 51 90
-2.485056e+00 1.006452e+00 8.732578e+00 63 51 90
-2.413335e+00 1.014850e+00 8.706388e+00 63 48 93
-1.826654e+00 1.007420e+00 8.424367e+00 62 44 79
-2.329212e+00 9.815065e-01 8.717169e+00 55 42 57
-2.329212e+00 9.815065e-01 8.717169e+00 55 42 57
-3.775409e+00 8.668448e-01 9.549622e+00 46 33 60
-3.469560e+00 8.867971e-01 9.396158e+00 61 47 80
-3.770899e+00 8.572664e-01 9.568956e+00 162 169 151
-3.765582e+00 8.522160e-01 9.585509e+00 51 44 89
-3.706136e+00 8.580352e-01 9.555155e+00 163 166 156
-2.289103e+00 9.672615e-01 8.822230e+00 159 164 152
-2.164139e+00 9.357528e-01 8.899363e+00 169 171 172
-4.627674e+00 7.080009e-01 1.027182e+01 144 145 133
-4.087426e+00 7.210787e-01 1.008285e+01 32 31 47
-4.494003e+00 6.735368e-01 1.035849e+01 151 146 144
-1.499788e+00 9.081058e-01 8.754846e+00 62 60 74
-4.016638e+00 6.978339e-01 1.013210e+01 162 157 153
-4.456118e+00 6.636351e-01 1.037677e+01 141 147 123
-4.456118e+00 6.636351e-01 1.037677e+01 141 147 123
-1.438640e+00 9.002043e-01 8.766202e+00 155 164 135
-4.347144e+00 6.484208e-01 1.040045e+01 156 154 150
-3.791061e+00 6.865128e-01 1.010386e+01 35 35 40
-3.915025e+00 6.720426e-01 1.018355e+01 161 163 152
-4.201386e+00 6.177050e-01 1.049598e+01 163 160 155
-4.201875e+00 6.087592e-01 1.050358e+01 163 160 155
-1.552700e+00 7.351230e-01 9.350124e+00 63 81 92
-1.548446e+00 7.304166e-01 9.352142e+00 63 81 92
-9.434470e-01 7.009674e-01 9.322278e+00 57 45 53
-2.754829e+00 7.041901e-01 1.034616e+01 76 55 48
-8.589913e-01 6.606134e-01 9.475679e+00 138 140 128
-9.181633e-01 6.446034e-01 9.552089e+00 98 104 91
-2.561035e+00 1.008990e+00 1.010448e+01 142 125 109
-8.241836e-01 6.375996e-01 9.571720e+00 59 60 56
-9.246694e-01 6.123390e-01 9.646009e+00 103 112 95
-2.514324e+00 1.076201e+00 1.006911e+01 50 34 34
-8.414297e-01 6.013998e-01 9.706714e+00 107 116 97
-5.406149e-01 6.344778e-01 9.543442e+00 145 144 131
-2.832770e+00 7.809409e-01 1.054238e+01 106 86 61
-9.212285e-01 5.502422e-01 9.841337e+00 98 104 95
-2.509669e+00 1.163332e+00 1.009439e+01 85 39 24
-2.800204e+00 8.880579e-01 1.052516e+01 90 65 42
-2.800204e+00 8.880579e-01 1.052516e+01 90 65 42
-1.240024e+00 4.829284e-01 1.013012e+01 30 34 38
-3.685589e+00 3.078937e-01 1.147515e+01 105 113 85
-8.722335e-01 5.170205e-01 9.936957e+00 23 40 64
-2.649681e+00 1.130300e+00 1.031888e+01 106 81 61
-2.483978e+00 1.302564e+00 1.009789e+01 129 102 78
-4.720130e-01 5.169641e-01 9.866344e+00 99 106 84
-2.615434e+00 1.273799e+00 1.031607e+01 150 135 120
-1.167445e+00 3.551581e-01 1.048967e+01 49 56 73
4.071419e-01 4.508014e-01 9.961658e+00 110 111 100
-2.955338e+00 1.009956e-01 1.191519e+01 39 49 35
-2.956282e+00 1.044201e-01 1.191236e+01 39 49 35
3.492524e-01 4.601090e-01 9.998683e+00 44 42 49
3.972995e-01 4.606983e-01 1.001275e+01 48 45 44
-7.572782e-01 1.344462e-01 1.107421e+01 182 184 190
8.217662e-01 3.951992e-01 1.009528e+01 62 73 47
-9.185026e-02 1.961497e-01 1.080665e+01 174 177 167
-2.685840e-01 1.837787e-01 1.091703e+01 180 181 183
8.715386e-01 3.644841e-01 1.022584e+01 71 73 44
9.309186e-01 3.466781e-01 1.024080e+01 158 160 142
9.548121e-01 3.623264e-01 1.023578e+01 90 106 76
-3.869331e-01 7.535292e-02 1.124673e+01 181 190 189
-2.801657e+00 -2.307240e-01 1.291670e+01 177 179 176
-3.776182e+00 -3.308917e-01 1.368194e+01 34 33 29
-2.131239e+00 -5.441667e-01 1.379181e+01 88 99 75
-2.307816e+00 -5.546181e-01 1.396032e+01 141 142 135
-2.455816e+00 -7.736105e-01 1.474045e+01 117 120 112
-2.697232e+00 -8.174171e-01 1.505020e+01 92 100 85
-2.696612e+00 -8.140142e-01 1.504585e+01 92 100 85
-2.538762e+00 -8.635576e-01 1.514155e+01 94 100 93
-2.298100e+00 -8.915960e-01 1.513459e+01 171 169 171
-2.505029e+00 -8.652935e-01 1.519629e+01 169 168 170
-2.004949e+00 -9.925118e-01 1.541751e+01 133 129 119
-2.390716e+00 2.327735e+00 1.039523e+01 147 139 139
-1.827016e+00 -1.046252e+00 1.552456e+01 125 125 103
-3.474564e+00 8.850258e-01 9.407077e+00 164 164 153
-4.399718e+00 7.565396e-01 1.005802e+01 59 52 79
-2.161685e+00 9.402761e-01 8.884705e+00 162 166 161
-4.252003e+00 7.479923e-01 1.004217e+01 158 159 163
-4.305301e+00 7.375990e-01 1.009041e+01 143 152 124
-4.264367e+00 7.287215e-01 1.011118e+01 143 152 132
-4.178877e+00 7.316723e-01 1.007370e+01 47 45 75
-4.567311e+00 6.958059e-01 1.029758e+01 145 141 129
-4.141594e+00 7.223777e-01 1.010474e+01 156 157 145
-4.505785e+00 6.789934e-01 1.033583e+01 145 145 133
-4.037533e+00 6.996953e-01 1.014048e+01 50 49 78
-4.011915e+00 6.880774e-01 1.015571e+01 31 31 37
-3.970025e+00 6.876988e-01 1.017045e+01 43 38 56
-4.319616e+00 6.398683e-01 1.042194e+01 36 32 41
-4.275138e+00 6.146263e-01 1.048399e+01 45 42 74
-1.281808e+00 6.666464e-01 9.495785e+00 132 136 120
-2.628407e+00 7.857890e-01 1.013770e+01 143 123 97
-2.598209e+00 8.664559e-01 1.010809e+01 103 83 56
-8.007122e-01 6.829859e-01 9.381514e+00 107 117 114
-7.975764e-01 6.622864e-01 9.462972e+00 87 92 86
-4.077756e+00 3.719761e-01 1.137607e+01 127 124 113
-4.078160e+00 3.743388e-01 1.137793e+01 127 124 113
-4.019344e+00 3.791556e-01 1.137070e+01 168 160 173
-4.874781e-01 6.283890e-01 9.523871e+00 93 93 76
-8.018720e-01 5.925501e-01 9.707228e+00 47 53 43
-4.062298e-01 6.352215e-01 9.513579e+00 85 101 87
-1.033588e+00 5.389120e-01 9.906883e+00 62 72 58
-1.033588e+00 5.389120e-01 9.906883e+00 62 72 58
-2.735210e+00 9.434960e-01 1.040738e+01 94 59 42
-2.735210e+00 9.434960e-01 1.040738e+01 94 59 42
-2.480076e+00 1.220321e+00 1.006722e+01 148 134 106
-3.717187e-01 5.677845e-01 9.685141e+00 133 45 38
-2.886530e-01 5.817009e-01 9.663977e+00 23 37 43
-2.965571e+00 7.372795e-01 1.085656e+01 88 82 64
-1.509533e+00 3.698146e-01 1.050080e+01 168 170 168
-2.580866e+00 1.274474e+00 1.025562e+01 145 132 106
-2.850915e+00 9.574191e-01 1.068154e+01 113 86 49
-1.201065e+00 3.738121e-01 1.046192e+01 176 174 178
-2.450798e+00 1.422319e+00 1.011409e+01 154 149 140
-2.729928e+00 1.248281e+00 1.053889e+01 71 50 32
9.442953e-02 4.542554e-01 9.993839e+00 62 76 74
2.119302e-01 4.737546e-01 9.920564e+00 110 113 96
-6.345456e-01 3.264774e-01 1.048136e+01 45 48 68
3.961559e-01 5.158137e-01 9.806461e+00 74 76 70
3.402048e-01 4.860737e-01 9.906014e+00 59 58 60
4.210846e-01 4.847861e-01 9.867523e+00 149 148 137
3.894403e-01 4.666377e-01 9.915999e+00 99 99 78
1.742540e-01 4.356954e-01 1.009527e+01 31 33 29
1.742540e-01 4.356954e-01 1.009527e+01 31 33 29
3.640495e-01 4.222443e-01 1.005978e+01 60 58 61
2.186362e-01 4.246597e-01 1.013466e+01 111 115 93
-2.782023e+00 1.297782e+00 1.067929e+01 98 102 78
-8.642245e-02 3.204468e-01 1.046094e+01 179 179 187
-3.160648e+00 7.333978e-03 1.225884e+01 37 41 45
-3.545100e+00 -1.634943e-02 1.247975e+01 29 52 34
-2.813080e+00 1.323237e+00 1.077665e+01 105 115 79
-2.782065e+00 1.422204e+00 1.075194e+01 153 153 141
8.915422e-01 3.638236e-01 1.025862e+01 58 73 48
-2.926847e-02 1.523240e-01 1.099120e+01 174 178 170
-2.627474e+00 1.701743e+00 1.054165e+01 36 59 99
-3.031128e+00 -2.421867e-01 1.309664e+01 180 181 167
-2.580188e+00 -2.570182e-01 1.291591e+01 174 165 170
-2.937499e+00 -2.416843e-01 1.306365e+01 38 47 41
-3.397048e+00 -2.497385e-01 1.330054e+01 90 95 83
-3.300062e+00 -2.961854e-01 1.340755e+01 172 164 156
-3.870725e+00 -3.348165e-01 1.373370e+01 24 34 26
-2.642331e+00 1.787039e+00 1.061373e+01 88 41 35
-2.667877e+00 -3.991237e-01 1.347185e+01 177 167 172
-2.605264e+00 -4.007715e-01 1.345456e+01 131 134 132
-2.683988e+00 -4.009919e-01 1.349542e+01 123 129 121
-2.899885e+00 -4.173646e-01 1.363663e+01 124 130 120
-3.553055e+00 -4.467370e-01 1.398887e+01 112 112 108
-2.533295e+00 -4.176934e-01 1.348933e+01 123 131 121
-2.533761e+00 -4.162908e-01 1.348742e+01 123 131 121
-2.546672e+00 -4.454673e-01 1.360219e+01 175 173 172
-3.598349e+00 -4.565830e-01 1.412241e+01 62 61 35
-2.387776e+00 -4.603494e-01 1.360149e+01 174 169 168
-2.387776e+00 -4.603494e-01 1.360149e+01 174 169 168
-2.335503e+00 -4.793023e-01 1.363254e+01 181 172 175
-2.349667e+00 -4.884433e-01 1.369632e+01 177 173 174
-2.257743e+00 -5.318304e-01 1.379244e+01 134 139 133
-2.205474e+00 -5.843198e-01 1.395472e+01 79 87 63
-2.259475e+00 -5.740637e-01 1.396974e+01 174 172 172
-2.170550e+00 -6.096711e-01 1.401632e+01 162 164 156
-2.084385e+00 -9.296218e-01 1.518271e+01 132 133 125
-1.964586e+00 -9.890779e-01 1.531916e+01 173 165 164
-2.568208e+00 2.187090e+00 1.067572e+01 108 69 52
-1.614797e+00 -1.007671e+00 1.524266e+01 119 132 76
-2.562953e+00 2.204564e+00 1.066855e+01 132 114 93
-2.579997e+00 2.193698e+00 1.070479e+01 134 120 93
-4.359352e+00 7.550761e-01 1.004244e+01 69 60 82
-4.359352e+00 7.550761e-01 1.004244e+01 69 60 82
-4.355823e+00 7.529118e-01 1.005292e+01 142 146 119
-2.128529e+00 9.234068e-01 8.901937e+00 169 171 178
-4.232103e+00 7.264417e-01 1.010884e+01 147 150 126
-4.246629e+00 7.235089e-01 1.012203e+01 61 60 87
-4.303367e+00 7.105385e-01 1.017816e+01 62 58 84
-4.185112e+00 7.172783e-01 1.013358e+01 55 55 63
-4.092576e+00 6.959852e-01 1.017344e+01 49 43 75
-4.438126e+00 6.692454e-01 1.036480e+01 45 38 69
-3.935779e+00 6.843111e-01 1.015360e+01 51 41 71
-4.371187e+00 6.326387e-01 1.044160e+01 50 45 71
-4.364290e+00 6.304861e-01 1.044721e+01 146 154 135
-4.140614e+00 6.036019e-01 1.049812e+01 142 156 119
-4.107572e+00 5.876115e-01 1.053469e+01 35 44 51
-4.745510e+00 5.407224e-01 1.093577e+01 43 43 64
-2.517750e+00 8.742636e-01 9.979264e+00 99 70 46
-2.590195e+00 8.265601e-01 1.008639e+01 95 74 50
-2.709597e+00 6.978961e-01 1.025808e+01 72 52 43
-2.586435e+00 9.219187e-01 1.011400e+01 135 121 103
-8.913837e-01 6.182241e-01 9.624717e+00 59 66 45
-4.467738e+00 2.925038e-01 1.170500e+01 32 40 20
-4.688504e-01 6.344421e-01 9.501243e+00 132 107 91
-9.282994e-01 5.399198e-01 9.876039e+00 152 151 147
-2.641061e+00 1.099823e+00 1.029041e+01 142 141 111
-9.650799e-01 4.862175e-01 1.003733e+01 63 69 63
-3.603070e+00 2.946331e-01 1.147908e+01 120 115 123
-9.369882e-01 4.919618e-01 1.003644e+01 50 62 81
-4.891554e-01 5.438689e-01 9.791555e+00 54 53 60
-4.791277e-01 5.519099e-01 9.791864e+00 93 99 82
-2.647097e+00 1.180375e+00 1.033896e+01 78 49 32
-2.781266e+00 1.030966e+00 1.054945e+01 143 122 104
-2.757322e+00 1.092194e+00 1.053057e+01 132 113 73
-1.146123e+00 3.114188e-01 1.060963e+01 166 167 165
-1.003420e+00 3.190118e-01 1.054253e+01 53 58 62
-2.704503e+00 1.239521e+00 1.047690e+01 138 103 81
1.326100e-01 4.723702e-01 9.974655e+00 88 87 101
