ply
format ascii 1.0
element face 0
property list uchar int vertex_indices
element vertex 942
property float x
property float y
property float z
property uchar diffuse_red
property uchar diffuse_green
property uchar diffuse_blue
end_header
-1.527781e+00 -1.481762e-01 1.232598e+01 131 127 116
-1.547861e+00 -1.204381e-01 1.224889e+01 130 127 113
-1.525713e+00 -1.729002e-01 1.240420e+01 127 126 113
-1.751236e+00 -1.085499e-01 1.224333e+01 134 131 115
-1.415745e+00 -1.463130e-01 1.230454e+01 129 127 112
-1.415745e+00 -1.463130e-01 1.230454e+01 129 127 112
-1.334707e+00 -1.357050e-01 1.224984e+01 16 11 17
-1.146391e+00 -1.617572e-01 1.226906e+01 36 28 35
-1.438017e+00 -1.050973e-01 1.217775e+01 17 16 14
-1.191903e+00 -1.656336e-01 1.229130e+01 30 25 17
-1.762662e+00 -9.418009e-02 1.220640e+01 41 30 36
-2.579613e+00 1.178450e+00 1.114128e+01 78 63 48
-2.492499e+00 1.577156e+00 1.114727e+01 63 63 52
-2.359566e+00 1.789668e+00 1.095711e+01 57 53 42
-2.408398e+00 1.949146e+00 1.112600e+01 52 49 41
-2.408398e+00 1.949146e+00 1.112600e+01 52 49 41
-2.542126e+00 6.904320e-01 1.085212e+01 60 49 43
-2.542126e+00 6.904320e-01 1.085212e+01 60 49 43
-2.585310e+00 1.120703e+00 1.111660e+01 65 47 35
-2.269776e+00 1.845543e+00 1.077230e+01 34 31 22
-2.269776e+00 1.845543e+00 1.077230e+01 34 31 22
-2.219713e+00 2.060826e+00 1.073621e+01 47 45 34
-2.354955e+00 2.015748e+00 1.103352e+01 42 42 31
-2.400911e+00 1.994046e+00 1.110808e+01 59 56 44
-2.403060e+00 1.019871e+00 1.072198e+01 82 72 62
-2.267818e+00 2.065082e+00 1.085539e+01 63 58 52
-2.319090e+00 -3.691398e-01 1.062178e+01 146 151 122
-1.812912e+00 -6.169407e-02 1.212204e+01 132 131 110
-1.589859e+00 -6.630445e-02 1.208120e+01 134 134 114
-1.724097e+00 -1.333431e-01 1.231807e+01 127 125 112
-1.723379e+00 -4.375506e-02 1.205163e+01 14 14 10
-1.262057e+00 -2.188575e-02 1.184843e+01 137 134 116
-1.654968e+00 -2.128173e-01 1.256002e+01 106 116 79
-1.799787e+00 -1.222778e-01 1.229976e+01 25 21 18
-1.776183e+00 -8.066248e-02 1.217262e+01 26 22 18
-1.643286e+00 -8.386744e-02 1.215063e+01 31 26 31
-1.694663e+00 -1.500986e-01 1.236571e+01 117 117 81
-1.754034e+00 -1.121196e-01 1.226224e+01 41 38 48
-1.468957e+00 -1.192185e-01 1.222388e+01 51 43 50
-1.468957e+00 -1.192185e-01 1.222388e+01 51 43 50
-1.559291e+00 1.515236e-01 1.128142e+01 49 51 57
-1.559124e+00 1.512645e-01 1.128056e+01 49 51 57
-1.749628e+00 -9.305487e-02 1.220514e+01 124 123 93
-1.797513e+00 -3.458195e-02 1.204058e+01 124 128 82
-2.378780e+00 1.099161e+00 1.073038e+01 32 29 19
-2.291924e+00 6.226954e-01 1.031854e+01 27 25 23
-1.517265e+01 2.942666e+00 6.309749e+00 75 68 67
-2.370927e+00 9.739787e-01 1.065613e+01 122 99 74
-3.352759e+00 1.428536e+00 7.768496e+00 132 125 107
-2.438915e+00 1.752179e+00 1.111097e+01 84 81 70
-2.399465e+00 1.810662e+00 1.104942e+01 62 56 45
-2.399465e+00 1.810662e+00 1.104942e+01 62 56 45
-2.244567e+00 1.952641e+00 1.075700e+01 22 21 15
-2.244567e+00 1.952641e+00 1.075700e+01 22 21 15
-2.156440e+00 2.026592e+00 1.057822e+01 21 21 12
-2.190947e+00 2.133145e+00 1.069567e+01 20 21 16
-2.190947e+00 2.133145e+00 1.069567e+01 20 21 16
-8.663628e+00 2.033014e+00 6.961439e+00 129 117 100
-1.531909e+01 2.908758e+00 6.840682e+00 66 70 72
-1.528649e+00 3.043747e-01 1.075725e+01 60 53 75
-2.219636e+00 1.060039e+00 1.035029e+01 116 92 65
-2.388242e+00 1.025296e+00 1.071953e+01 76 63 54
-2.581564e+00 1.225060e+00 1.114990e+01 77 61 45
-2.575565e+00 1.224744e+00 1.115456e+01 77 61 45
-2.559371e+00 1.325830e+00 1.116038e+01 61 47 36
-3.699502e+00 1.667138e+00 7.140923e+00 182 179 173
-3.799916e+00 1.926930e+00 6.493586e+00 131 120 70
-2.430007e+00 1.567474e+00 1.102204e+01 49 46 35
-2.401972e+00 1.587929e+00 1.096206e+01 45 44 35
-2.344582e+00 1.691728e+00 1.089176e+01 61 61 50
-2.416230e+00 1.687964e+00 1.104570e+01 58 52 42
-2.504380e+00 1.753457e+00 1.123928e+01 56 53 43
-2.414056e+00 1.836443e+00 1.109926e+01 63 63 47
-2.414056e+00 1.836443e+00 1.109926e+01 63 63 47
-2.217621e+00 1.986630e+00 1.071097e+01 77 77 65
-2.522559e+00 1.803234e+00 1.129397e+01 18 20 15
-2.437028e+00 1.858797e+00 1.115036e+01 56 56 42
-2.340366e+00 1.936720e+00 1.096898e+01 18 20 15
-2.294825e+00 2.015536e+00 1.090024e+01 81 77 65
-2.297022e+00 2.015208e+00 1.089856e+01 81 77 65
-2.285174e+00 2.059808e+00 1.089318e+01 71 65 53
-2.295316e+00 2.053511e+00 1.091697e+01 56 50 39
-2.426841e+00 1.979205e+00 1.116955e+01 79 75 62
-2.467458e+00 1.953214e+00 1.124409e+01 56 49 39
-2.171982e+00 2.211287e+00 1.067302e+01 112 95 69
-2.331022e+00 5.894377e-01 1.036532e+01 29 23 22
-2.369457e+00 7.083618e-01 1.052031e+01 106 85 64
-2.462347e+00 1.228125e+00 1.094840e+01 85 71 56
-5.147317e+00 3.843738e-01 1.170257e+01 59 57 40
-2.388111e+00 1.312404e+00 1.083101e+01 81 67 53
-2.494681e+00 1.260888e+00 1.102711e+01 71 55 42
-2.494672e+00 1.260871e+00 1.102709e+01 71 55 42
-5.356067e+00 4.135139e-01 1.167517e+01 78 90 49
-2.398229e+00 1.397472e+00 1.089042e+01 88 72 59
-2.484284e+00 1.353452e+00 1.103604e+01 76 60 45
-2.308820e+00 1.538318e+00 1.074390e+01 83 65 46
-2.281595e+00 1.555035e+00 1.069060e+01 92 73 57
-2.262883e+00 1.663738e+00 1.069530e+01 80 78 66
-2.263755e+00 1.661937e+00 1.069447e+01 80 78 66
-5.317872e+00 1.277450e+00 8.664094e+00 126 133 63
-2.458303e+00 1.669296e+00 1.110353e+01 71 67 49
-2.392994e+00 1.775142e+00 1.102210e+01 49 45 33
-2.167890e+00 1.945570e+00 1.057735e+01 70 68 55
-2.167890e+00 1.945570e+00 1.057735e+01 70 68 55
-2.175449e+00 2.016314e+00 1.062005e+01 76 76 65
-2.302465e+00 1.940412e+00 1.088521e+01 69 63 54
-2.302465e+00 1.940412e+00 1.088521e+01 69 63 54
-2.486995e+00 1.869847e+00 1.125310e+01 42 40 28
-2.486995e+00 1.869847e+00 1.125310e+01 42 40 28
-2.437648e+00 1.974349e+00 1.119419e+01 57 55 45
-2.444904e+00 2.007810e+00 1.121659e+01 61 59 47
-2.509538e+00 4.978178e-01 1.071640e+01 25 25 23
-2.492181e+00 5.056812e-01 1.069593e+01 26 24 22
-2.212919e+00 1.413528e+00 1.048259e+01 73 56 42
-2.212919e+00 1.413528e+00 1.048259e+01 73 56 42
-2.273855e+00 1.421525e+00 1.062434e+01 45 26 12
-3.331531e+00 1.582301e+00 7.336853e+00 182 175 163
-2.180376e+00 1.614597e+00 1.047576e+01 98 84 67
-2.243341e+00 1.675371e+00 1.064636e+01 66 62 51
-2.191092e+00 1.743825e+00 1.055478e+01 85 74 61
-2.451768e+00 1.598330e+00 1.106553e+01 67 58 48
-2.327832e+00 1.771697e+00 1.088753e+01 75 71 62
-2.265920e+00 1.996704e+00 1.082324e+01 59 58 49
-2.460960e+00 1.887256e+00 1.119866e+01 70 67 51
-2.150753e+00 2.138134e+00 1.060970e+01 64 57 47
-2.204201e+00 2.105870e+00 1.071529e+01 66 64 51
-1.284804e+00 3.456866e-01 1.055803e+01 178 176 184
-2.353982e+00 9.630585e-01 1.062294e+01 59 48 36
-5.324926e+00 4.382015e-01 1.158197e+01 90 96 46
-4.029948e+00 1.749885e+00 6.947826e+00 142 138 116
-2.463210e+00 1.736034e+00 1.115578e+01 25 22 13
-2.463210e+00 1.736034e+00 1.115578e+01 25 22 13
-2.353428e+00 1.868928e+00 1.097674e+01 21 22 13
-2.397150e+00 2.032756e+00 1.112349e+01 22 19 12
-2.204657e+00 -5.497227e-02 1.219976e+01 140 137 128
-2.028019e+00 -3.805823e-02 1.209631e+01 144 140 132
-1.795733e+00 -1.028316e-01 1.223519e+01 138 138 128
-1.933785e+00 -3.583818e-02 1.206923e+01 49 41 51
-1.596687e+00 -1.124843e-01 1.222261e+01 141 137 130
-2.663835e+00 1.136949e-02 1.209595e+01 30 24 30
-2.214738e+00 -8.657977e-02 1.229138e+01 32 29 34
-2.264775e+00 -4.726848e-03 1.205755e+01 140 140 123
-1.985329e+00 -2.089032e-02 1.204341e+01 143 142 122
-1.883571e+00 4.777903e-03 1.192959e+01 36 30 43
-2.070320e+00 -4.197684e-02 1.213085e+01 38 34 44
-2.000685e+00 -5.964871e-02 1.216169e+01 33 34 37
-1.874959e+00 -8.893526e-02 1.221408e+01 39 30 49
-2.092481e+00 8.675115e-03 1.197172e+01 43 38 42
-1.900207e+00 -5.618472e-04 1.195260e+01 31 30 31
-2.264522e+00 1.207224e-02 1.200974e+01 47 41 50
-1.893345e+00 -7.245936e-02 1.217559e+01 50 44 58
-1.984443e+00 -1.872322e-02 1.203783e+01 140 137 118
-2.135112e+00 3.524485e-02 1.190163e+01 26 27 23
-2.021549e+00 2.432309e-02 1.190624e+01 137 139 108
-1.995857e+00 -1.283881e-01 1.236542e+01 124 121 119
-1.801465e+00 -5.353579e-02 1.208842e+01 139 138 134
-1.874739e+00 1.630741e-03 1.194145e+01 136 138 105
-2.147427e+00 3.284046e-02 1.191497e+01 114 118 84
-1.991386e+00 -6.790314e-02 1.218580e+01 138 130 122
-1.957103e+00 -1.499274e-01 1.242507e+01 133 131 115
-1.992985e+00 -6.689479e-02 1.218179e+01 135 132 122
-2.024291e+00 -6.766603e-02 1.219652e+01 28 20 34
-1.941934e+00 -6.801652e-02 1.217127e+01 137 132 129
-1.620936e+00 -6.658669e-02 1.209279e+01 25 24 19
-2.207980e+00 -9.117752e-02 1.230261e+01 121 124 95
-1.667004e+00 -5.395296e-02 1.206598e+01 132 128 102
-2.405207e+00 -1.235822e-01 1.243243e+01 120 123 95
-1.737158e+00 -5.934611e-02 1.210127e+01 57 53 65
-1.797483e+00 -3.419353e-02 1.203860e+01 124 129 97
-2.651678e+00 1.008895e-02 1.211006e+01 152 152 142
-2.870954e+00 6.288810e-02 1.199640e+01 32 29 38
-2.011910e+00 1.547853e-02 1.192198e+01 32 33 41
-2.875853e+00 4.366105e-02 1.205266e+01 40 35 49
-1.886219e+00 -5.102748e-02 1.210004e+01 156 159 153
-2.262702e+00 6.149230e-03 1.202570e+01 148 148 159
-3.150248e+00 4.296083e-02 1.210488e+01 45 42 47
-2.740345e+00 9.134720e-03 1.212692e+01 136 141 111
-2.374536e+00 -6.668003e-02 1.226771e+01 32 30 32
-2.039595e+00 2.878061e-02 1.189580e+01 30 26 33
-2.890078e+00 -8.221279e-02 1.241859e+01 136 132 132
-2.816718e+00 6.162656e-02 1.198857e+01 56 44 58
-3.080366e+00 1.633127e-01 1.173678e+01 122 122 126
-2.930100e+00 8.419342e-02 1.194375e+01 34 33 50
-2.499326e+00 -3.279244e-01 1.270121e+01 160 157 159
-1.009786e+00 5.292462e-01 9.933258e+00 53 57 43
-9.252818e-01 5.165770e-01 9.939639e+00 98 77 72
-1.468883e+00 9.045850e-01 8.805848e+00 170 171 169
-7.266542e-01 8.035477e-01 8.945964e+00 130 138 109
-7.266542e-01 8.035477e-01 8.945964e+00 130 138 109
-1.396377e+00 8.378306e-01 9.016187e+00 59 62 51
-1.182186e+00 8.516504e-01 8.874086e+00 55 58 49
-1.403558e+00 9.007944e-01 8.809806e+00 102 108 107
-1.403558e+00 9.007944e-01 8.809806e+00 102 108 107
-1.403736e+00 9.049118e-01 8.795694e+00 67 63 68
-1.275315e+00 6.728603e-01 9.504277e+00 124 128 102
-9.352102e-01 7.124412e-01 9.294438e+00 63 25 26
-9.004986e-01 7.090774e-01 9.296719e+00 62 31 35
-9.325155e-01 7.025500e-01 9.326193e+00 56 34 39
-9.457240e-01 7.002083e-01 9.336938e+00 72 35 36
-9.457240e-01 7.002083e-01 9.336938e+00 72 35 36
-1.145086e+00 6.482306e-01 9.553477e+00 49 48 32
-2.348809e+00 9.965492e-01 8.740440e+00 56 44 65
-1.808245e+00 1.056630e+00 8.406172e+00 64 47 63
-1.775367e+00 1.044893e+00 8.442762e+00 52 44 63
-1.768435e+00 1.035526e+00 8.466391e+00 159 157 152
-1.730728e+00 1.037205e+00 8.459331e+00 65 56 88
-3.508142e+00 1.002939e+00 9.028740e+00 51 39 71
-4.203475e+00 8.744778e-01 9.627023e+00 162 162 162
-3.415980e+00 9.926637e-01 9.033785e+00 168 171 183
-1.199391e+00 8.781742e-01 8.836498e+00 65 71 58
-1.658413e+00 7.634341e-01 9.298587e+00 162 44 26
-1.197661e+00 6.732308e-01 9.470215e+00 124 124 122
-2.358871e+00 9.822286e-01 8.787903e+00 161 169 154
-2.454149e+00 1.000584e+00 8.748903e+00 66 53 93
-2.186839e+00 9.519484e-01 8.856674e+00 166 172 167
-2.173400e+00 9.413809e-01 8.887348e+00 57 46 74
-1.387636e+00 9.030436e-01 8.805491e+00 73 72 66
-1.593978e+00 7.954249e-01 9.190266e+00 138 135 129
-1.416214e+00 7.703621e-01 9.219543e+00 37 42 36
-1.298084e+00 7.063423e-01 9.392440e+00 60 61 58
-1.419664e+00 9.090069e-01 8.794900e+00 143 150 151
-1.707235e+00 7.948982e-01 9.217830e+00 98 108 82
-1.417490e+00 7.326722e-01 9.336726e+00 34 42 44
-1.503874e+00 7.158629e-01 9.410830e+00 34 40 42
-1.194134e+00 6.931464e-01 9.411297e+00 60 69 84
-3.144155e+00 9.923878e-01 8.953412e+00 50 36 66
-3.144896e+00 9.920245e-01 8.955489e+00 50 36 66
-1.064112e+00 5.240311e-01 9.921781e+00 56 60 52
-1.328314e+00 6.742124e-01 9.492578e+00 123 125 115
-1.443653e+00 7.136871e-01 9.394493e+00 95 107 106
-1.913147e+00 8.310867e-01 9.173434e+00 84 92 90
-3.921561e+00 -1.128739e-01 1.277139e+01 183 181 182
-2.097962e+01 2.741503e+00 6.725424e+00 44 43 41
-2.051098e+01 4.016530e+00 4.679238e+00 104 100 98
-5.104181e+00 1.370848e+00 8.410406e+00 186 186 186
-1.417944e+00 3.072678e-01 1.067002e+01 174 173 178
-2.312137e+00 5.933662e-01 1.036688e+01 28 28 20
-3.845983e+00 -1.570455e-01 1.300647e+01 67 64 59
-2.011899e+01 7.019467e-01 1.530272e+01 16 17 19
-2.402245e+01 1.274471e+00 1.426547e+01 14 14 16
-1.605537e+00 7.917901e-01 9.225425e+00 125 124 114
-1.499518e+00 3.305775e-01 1.060581e+01 175 176 181
-3.651022e+00 1.145577e+00 8.672263e+00 192 190 191
-3.548107e+00 -8.067470e-02 1.277479e+01 169 171 181
-8.615778e+00 2.056659e+00 6.833240e+00 38 38 40
-2.185191e+00 2.255082e+00 1.070959e+01 100 101 92
-1.621002e+00 1.185582e+00 8.001468e+00 168 169 173
-1.585256e+00 3.166935e-01 1.069010e+01 115 118 97
-3.467302e+00 -7.992448e-02 1.257009e+01 178 177 170
-3.471185e+00 -1.592060e-01 1.300117e+01 176 175 173
-4.101056e+00 -1.219813e-01 1.302641e+01 181 181 183
-4.101056e+00 -1.219813e-01 1.302641e+01 181 181 183
-4.555912e+00 9.574469e-03 1.278312e+01 182 180 181
-4.719912e+00 2.237059e-02 1.289507e+01 183 181 182
-8.624493e+00 2.179559e+00 6.621497e+00 92 87 83
-8.880953e+00 2.088060e+00 6.933954e+00 98 95 79
-8.943550e+00 2.082285e+00 6.913553e+00 98 95 79
-2.059133e+01 -4.268412e-01 2.054807e+01 90 83 77
-1.217900e+00 3.445884e-01 1.055434e+01 175 175 182
-1.412911e+00 3.824701e-01 1.046905e+01 174 175 180
-1.410168e+00 3.821266e-01 1.046946e+01 174 175 180
-1.409888e+00 2.790356e-01 1.078992e+01 62 58 71
-2.030945e+00 1.092389e+00 8.334755e+00 159 155 164
-1.508979e+00 2.774199e-01 1.080810e+01 176 177 182
-2.321488e+00 -6.273563e-02 1.232256e+01 171 170 166
-2.321488e+00 -6.273563e-02 1.232256e+01 171 170 166
-3.479661e+00 1.111990e+00 8.635184e+00 73 79 75
-3.671608e+00 1.497144e+00 7.616204e+00 106 98 94
-2.518878e+00 -1.018286e-01 1.248913e+01 171 170 168
-2.518878e+00 -1.018286e-01 1.248913e+01 171 170 168
-2.719954e+00 -3.702679e-03 1.218634e+01 173 172 168
-2.719954e+00 -3.702679e-03 1.218634e+01 173 172 168
-2.791510e+00 -4.367189e-02 1.235802e+01 175 173 171
-3.914776e+00 1.153682e+00 8.660662e+00 145 145 153
-4.137204e+00 1.172226e+00 8.716676e+00 121 115 87
-4.424762e+00 1.362499e+00 8.205547e+00 136 127 118
-3.672150e+00 2.658611e-01 1.154368e+01 93 49 43
-5.439343e+00 1.049867e-01 1.232443e+01 185 183 184
-1.301134e+01 2.721687e-01 1.350032e+01 61 61 69
-1.301134e+01 2.721687e-01 1.350032e+01 61 61 69
-1.842420e+01 4.242603e+00 4.847174e+00 76 72 71
-1.915071e+01 4.279503e+00 4.640441e+00 76 72 71
-1.118527e+00 5.242338e-01 9.990969e+00 182 182 184
-1.028584e+00 3.171151e-01 1.065284e+01 174 173 178
-1.090887e+00 3.046012e-01 1.060824e+01 174 175 178
-1.183998e+00 4.044955e-01 1.034072e+01 181 181 182
-1.461998e+00 3.095679e-01 1.076775e+01 176 176 175
-2.395012e+00 -1.438479e-01 1.254395e+01 171 169 170
-3.512630e+00 1.040738e+00 8.917139e+00 193 193 193
-2.604613e+00 -1.869221e-01 1.278939e+01 171 169 170
-2.604613e+00 -1.869221e-01 1.278939e+01 171 169 170
-3.071082e+00 -4.071641e-02 1.253158e+01 180 179 177
-3.270876e+00 -5.349090e-02 1.249472e+01 180 179 177
-3.414154e+00 -8.156998e-02 1.273413e+01 178 180 179
-3.611469e+00 -1.557172e-01 1.291174e+01 180 178 179
-4.336864e+00 2.787779e-01 1.174810e+01 48 51 44
-5.647618e+00 1.486567e-01 1.237087e+01 62 59 42
-5.465049e+00 2.192127e-01 1.233432e+01 62 59 42
-9.114641e+00 2.123764e+00 6.805355e+00 113 104 100
-1.662099e+01 3.367106e+00 4.890279e+00 30 31 34
-1.621494e+01 3.527203e+00 5.044650e+00 112 107 101
-2.621901e+01 1.953267e+00 1.245854e+01 148 161 192
-1.056941e+00 4.862944e-01 1.006123e+01 51 52 44
-1.074121e+00 3.944329e-01 1.036420e+01 20 17 17
-1.144313e+00 4.612448e-01 1.023026e+01 20 18 17
-1.260437e+00 4.745761e-01 1.020558e+01 181 180 185
-1.260437e+00 4.745761e-01 1.020558e+01 181 180 185
-1.568167e+00 8.519860e-01 9.010117e+00 130 134 118
-1.181022e+00 3.274527e-01 1.064505e+01 174 174 182
-1.556425e+00 8.363603e-01 9.080396e+00 136 135 117
-1.329280e+00 4.567063e-01 1.018983e+01 20 16 17
-1.318542e+00 4.346621e-01 1.028151e+01 182 180 178
-1.350444e+00 4.459127e-01 1.023673e+01 20 18 15
-1.251225e+00 1.371895e-01 1.130867e+01 202 200 201
-1.236887e+00 1.157872e-01 1.138665e+01 203 203 201
-2.076462e+00 1.117865e+00 8.315443e+00 184 179 187
-1.495959e+00 1.711605e-01 1.118293e+01 192 191 194
-2.402569e+00 -1.688715e-01 1.269923e+01 169 168 166
-2.468537e+00 -1.450541e-01 1.264550e+01 169 168 169
-2.755053e+00 -4.724163e-03 1.227180e+01 38 41 39
-2.755053e+00 -4.724163e-03 1.227180e+01 38 41 39
-3.714754e+00 8.717884e-01 9.365466e+00 83 89 106
-2.869850e+00 -7.071364e-02 1.245090e+01 60 64 57
-3.720011e+00 9.323894e-01 9.313834e+00 175 177 174
-3.002901e+00 6.097565e-02 1.212413e+01 159 160 158
-2.831925e+00 -2.356306e-01 1.304099e+01 173 174 170
-3.358679e+00 -5.918909e-02 1.247790e+01 180 178 182
-3.197569e+00 -1.618126e-01 1.300550e+01 175 177 172
-4.353019e+00 1.121991e-02 1.266901e+01 128 129 87
-4.751588e+00 2.266306e-01 1.193311e+01 157 145 106
-4.686412e+00 3.569041e-03 1.295919e+01 185 183 184
-4.533355e+00 -1.887299e-01 1.364405e+01 175 173 174
-8.623884e+00 1.864935e+00 7.534740e+00 36 34 35
-8.623884e+00 1.864935e+00 7.534740e+00 36 34 35
-1.131123e+01 1.696313e+00 8.333540e+00 113 107 97
-1.202777e+00 4.822593e-01 1.016252e+01 24 20 32
-1.097044e+00 2.264197e-01 1.093612e+01 183 182 180
-1.315864e+00 4.801331e-01 1.014423e+01 31 25 36
-1.025633e+00 -8.410128e-02 1.197886e+01 163 164 162
-1.951872e+00 1.117124e+00 8.328983e+00 178 180 182
-1.569480e+00 2.905900e-01 1.080893e+01 175 175 176
-1.697473e+00 1.262388e-01 1.142174e+01 104 96 105
-2.665866e+00 -2.048089e-01 1.291790e+01 168 168 169
-2.864440e+00 -8.846445e-02 1.250359e+01 181 179 170
-3.109360e+00 -4.281321e-02 1.240150e+01 181 179 182
-3.109360e+00 -4.281321e-02 1.240150e+01 181 179 182
-2.901851e+00 -2.216215e-01 1.306836e+01 32 32 35
-3.130946e+00 -1.037575e-01 1.269640e+01 181 176 173
-3.251187e+00 -9.161105e-02 1.266363e+01 181 178 174
-4.265186e+00 9.568145e-01 9.367474e+00 194 192 197
-3.665495e+00 2.461801e-01 1.163430e+01 112 113 102
-3.669762e+00 2.462473e-01 1.163314e+01 112 113 102
-4.861147e+00 1.197715e+00 8.790213e+00 185 185 182
-5.147668e+00 2.193433e-01 1.185311e+01 111 109 41
-4.420441e+00 -2.603553e-01 1.376576e+01 76 79 45
-1.620665e+01 2.308994e+00 8.102301e+00 104 100 117
-2.013345e+01 3.181908e+00 7.819500e+00 9 13 14
-2.451744e+01 1.179033e+00 1.392773e+01 125 124 132
-1.584250e+00 1.201559e+00 7.950450e+00 166 163 165
-9.954804e-01 3.138016e-01 1.062021e+01 54 45 74
-1.137503e+00 3.094477e-01 1.065687e+01 168 171 162
-1.146007e+00 2.265907e-01 1.093716e+01 88 85 101
-1.146007e+00 2.265907e-01 1.093716e+01 88 85 101
-1.241060e+00 3.336782e-01 1.061364e+01 171 173 172
-1.152526e+00 1.038438e-01 1.142267e+01 199 198 193
-1.337775e+00 2.782300e-01 1.080989e+01 174 176 168
-1.503186e+00 2.524229e-01 1.090121e+01 180 181 178
-1.689666e+00 2.287229e-01 1.104665e+01 177 177 180
-1.406362e+00 -1.019400e-01 1.216784e+01 160 164 153
-1.409014e+00 -8.681573e-02 1.214117e+01 32 30 51
-1.665882e+00 1.170145e-01 1.143194e+01 195 196 191
-1.773327e+00 7.645453e-02 1.163416e+01 211 210 203
-1.902587e+00 1.568285e-01 1.133950e+01 185 183 188
-1.776814e+00 -1.711144e-02 1.198085e+01 34 32 52
-2.846511e+00 1.374310e+00 7.768818e+00 173 174 177
-3.561315e+00 1.537422e+00 7.440545e+00 170 175 177
-2.417403e+00 -1.491926e-01 1.267060e+01 166 168 167
-2.696874e+00 -1.219205e-01 1.258241e+01 171 171 165
-2.684390e+00 -1.882542e-01 1.289376e+01 171 172 172
-2.738445e+00 -1.998733e-01 1.290319e+01 176 170 174
-2.963889e+00 -6.189687e-02 1.245471e+01 178 180 172
-3.968671e+00 8.515941e-01 9.521253e+00 193 191 193
-4.223436e+00 8.674569e-01 9.556700e+00 194 190 191
-3.381702e+00 -4.857984e-02 1.258766e+01 178 177 176
-4.379540e+00 8.789319e-01 9.464511e+00 119 123 124
-4.479761e+00 1.266735e+00 8.509002e+00 143 123 87
-2.322686e+00 1.399616e+00 1.066621e+01 64 55 46
-2.322686e+00 1.399616e+00 1.066621e+01 64 55 46
-3.870857e+00 -2.283453e-01 1.353138e+01 40 44 34
-4.553890e+00 1.812869e-02 1.286135e+01 70 76 67
-4.462322e+00 -1.947994e-01 1.348464e+01 117 112 111
-6.458744e+00 1.418029e+00 8.235440e+00 131 119 103
-2.163573e+00 2.024855e+00 1.057994e+01 25 25 16
-7.329068e+00 2.921704e-01 1.284750e+01 178 174 178
-2.069452e+01 1.663204e+00 1.118981e+01 105 113 132
-1.868475e+01 4.371739e+00 4.381068e+00 49 57 79
-1.084200e+00 6.306649e-01 9.642612e+00 175 174 176
-8.042996e+00 -7.943916e+00 1.311605e+01 177 179 183
-9.801875e-01 3.224720e-01 1.059320e+01 48 43 75
-1.006774e+00 3.218179e-01 1.060417e+01 171 173 168
-1.002180e+00 3.255063e-01 1.060403e+01 171 173 168
-1.010022e+00 2.857528e-01 1.072555e+01 56 52 76
-1.314273e+00 6.838900e-01 9.499909e+00 121 122 112
-1.119642e+00 3.304674e-01 1.055621e+01 166 171 168
-1.199575e+00 4.628289e-01 1.020070e+01 21 17 21
-1.122703e+00 3.183529e-01 1.062978e+01 167 169 165
-1.066231e+00 2.274430e-01 1.094386e+01 93 83 111
-1.082139e+00 2.383719e-01 1.090758e+01 81 67 88
-1.082139e+00 2.383719e-01 1.090758e+01 81 67 88
-9.968579e-01 1.164732e-01 1.134014e+01 185 193 172
-1.810464e+00 1.269001e+00 7.832234e+00 52 48 44
-1.823582e+00 1.255263e+00 7.841928e+00 169 166 160
-1.190371e+00 2.567375e-01 1.084153e+01 165 171 168
-1.195696e+00 2.670963e-01 1.082475e+01 89 83 127
-9.719214e-01 -6.632181e-03 1.174227e+01 62 60 105
-1.320697e+00 3.804974e-01 1.046712e+01 40 36 60
-1.321434e+00 3.797569e-01 1.046699e+01 40 36 60
-1.007095e+00 2.633230e-03 1.172146e+01 58 51 88
-1.963320e+00 1.265448e+00 7.798315e+00 161 172 149
-1.270361e+00 2.489804e-01 1.088007e+01 77 70 100
-1.294818e+00 2.733858e-01 1.080958e+01 169 174 164
-1.061096e+00 -1.722322e-04 1.174417e+01 63 51 91
-1.382000e+00 3.559457e-01 1.057577e+01 169 174 168
-1.912942e+00 1.165744e+00 8.189659e+00 169 175 162
-1.347118e+00 2.842024e-01 1.079028e+01 55 53 74
-1.094320e+00 1.107940e-02 1.171604e+01 79 71 111
-1.187508e+00 1.088703e-01 1.140176e+01 194 198 187
-1.187508e+00 1.088703e-01 1.140176e+01 194 198 187
-1.280807e+00 1.393763e-01 1.124126e+01 196 201 182
-1.094398e+00 -7.144771e-02 1.196821e+01 59 55 95
-1.094398e+00 -7.144771e-02 1.196821e+01 59 55 95
-1.197025e+00 4.691368e-02 1.167860e+01 185 188 186
-1.255019e+00 7.148339e-02 1.156721e+01 198 201 188
-1.309306e+00 5.538113e-02 1.156512e+01 202 201 200
-1.281128e+00 6.069340e-02 1.161832e+01 197 199 191
-1.295112e+00 7.918390e-02 1.158406e+01 195 200 183
-1.441817e+00 1.328863e-01 1.129950e+01 188 193 181
-1.333735e+00 7.010110e-02 1.160755e+01 137 127 140
-1.594104e+00 2.810531e-01 1.085411e+01 171 174 167
-1.401219e+00 9.496214e-02 1.153996e+01 203 204 198
-1.501689e+00 1.449905e-01 1.128417e+01 191 191 177
-1.620959e+00 1.680110e-01 1.121497e+01 178 180 176
-1.693442e+00 2.236690e-01 1.105361e+01 179 179 181
-1.799901e+00 2.312889e-01 1.101427e+01 94 93 117
-1.799901e+00 2.312889e-01 1.101427e+01 94 93 117
-1.465503e+00 -1.327820e-01 1.226703e+01 51 46 82
-1.675333e+00 8.885052e-02 1.162740e+01 210 214 199
-1.778323e+00 8.824038e-02 1.160312e+01 151 145 151
-1.662055e+00 -1.801688e-02 1.200388e+01 159 166 143
-1.659721e+00 3.591571e-03 1.197831e+01 47 41 81
-1.637165e+00 -1.261606e-01 1.233442e+01 163 162 165
-2.457168e+00 6.362862e-01 9.906088e+00 178 181 178
-2.939098e+00 1.394655e+00 7.702975e+00 180 177 181
-1.877022e+00 -1.488312e-01 1.244471e+01 162 164 155
-2.307436e+00 9.888627e-01 1.040505e+01 77 70 67
-2.256362e+00 1.038614e+00 1.037879e+01 111 93 74
-3.566003e+00 1.009624e+00 8.975089e+00 185 190 190
-2.592723e+00 -1.310333e-01 1.260806e+01 172 173 170
-2.723408e+00 5.413120e-01 1.101130e+01 184 181 172
-2.215832e+00 1.122622e+00 1.034638e+01 59 48 42
-3.861155e+00 1.352217e+00 8.150901e+00 188 186 191
-3.744016e+00 8.236588e-01 9.541495e+00 194 193 198
-3.956114e+00 1.323769e+00 8.244480e+00 191 184 192
-2.954968e+00 -7.177598e-02 1.248452e+01 178 175 175
-2.824722e+00 -2.381676e-01 1.309036e+01 31 32 50
-3.926861e+00 8.500446e-01 9.459206e+00 192 187 193
-2.449379e+00 9.742102e-01 1.079064e+01 111 92 73
-3.032483e+00 -4.031267e-03 1.238925e+01 179 176 180
-4.008183e+00 8.983242e-01 9.444137e+00 78 79 83
-2.975655e+00 -2.141682e-01 1.306188e+01 36 43 56
-4.095920e+00 8.373853e-01 9.557932e+00 194 192 193
-4.173361e+00 9.162648e-01 9.342620e+00 191 190 189
-4.292153e+00 8.932947e-01 9.426087e+00 125 130 132
-4.318459e+00 8.757373e-01 9.456006e+00 190 188 191
-3.246823e+00 -1.441564e-01 1.290773e+01 39 46 69
-3.246823e+00 -1.441564e-01 1.290773e+01 39 46 69
-4.376704e+00 8.550693e-01 9.516173e+00 192 190 189
-3.348869e+00 -2.564939e-01 1.339091e+01 165 169 151
-5.939069e+00 1.717007e+00 7.271439e+00 126 115 93
-5.939069e+00 1.717007e+00 7.271439e+00 126 115 93
-4.153329e+00 -2.061405e-01 1.348036e+01 35 38 31
-6.051773e+00 1.470496e+00 7.983690e+00 89 84 72
-2.231182e+00 1.759469e+00 1.065367e+01 72 69 62
-4.765773e+00 3.141946e-02 1.282665e+01 179 179 179
-5.139749e+00 1.972761e-01 1.216647e+01 126 130 126
-2.170540e+00 1.870220e+00 1.053220e+01 45 43 31
-2.170540e+00 1.870220e+00 1.053220e+01 45 43 31
-2.348826e+00 1.690195e+00 1.089049e+01 63 61 49
-2.454191e+00 1.633878e+00 1.108509e+01 67 67 57
-7.080457e+00 1.816104e+00 7.273510e+00 129 122 104
-7.080457e+00 1.816104e+00 7.273510e+00 129 122 104
-2.397506e+00 1.740552e+00 1.098471e+01 74 71 64
-5.700870e+00 1.638915e-01 1.267331e+01 151 143 136
-2.539015e+00 1.704280e+00 1.125894e+01 70 63 55
-2.400924e+00 1.842445e+00 1.106631e+01 46 42 33
-2.210387e+00 2.064076e+00 1.073875e+01 45 42 32
-2.487968e+00 1.799814e+00 1.121669e+01 62 55 49
-2.212806e+00 2.134469e+00 1.075854e+01 54 52 42
-2.211845e+00 2.134742e+00 1.075927e+01 54 52 42
-6.719277e+00 1.698386e-01 1.305096e+01 152 146 123
-1.314915e+01 3.073094e-01 1.348695e+01 53 58 60
-1.669238e+01 2.585854e+00 7.557524e+00 95 92 91
-2.061025e+01 2.641689e+00 7.793962e+00 50 45 47
-2.030754e+01 3.507120e+00 7.475046e+00 16 19 25
-1.127567e+00 3.714305e-01 1.046833e+01 71 63 100
-1.098259e+00 3.206080e-01 1.062958e+01 67 63 95
-1.133400e+00 3.364796e-01 1.056065e+01 72 63 112
-1.167521e+00 3.509976e-01 1.054180e+01 69 64 111
-1.138423e+00 3.001537e-01 1.070208e+01 67 67 103
-1.216022e+00 3.548988e-01 1.052200e+01 68 61 111
-1.137936e+00 2.416809e-01 1.089243e+01 171 174 156
-1.147980e+00 2.407324e-01 1.088023e+01 89 87 100
-1.197739e+00 2.646693e-01 1.082469e+01 89 83 127
-1.021918e+00 5.371895e-02 1.153281e+01 123 116 132
-1.283012e+00 3.476254e-01 1.057535e+01 68 65 99
-1.280471e+00 3.512544e-01 1.057514e+01 68 65 99
-1.036291e+00 7.736077e-02 1.150655e+01 109 108 112
-4.238182e+00 -2.415785e+00 1.096251e+01 73 67 104
-1.283917e+00 3.262444e-01 1.063744e+01 73 67 104
-1.133024e+00 1.271295e-01 1.127446e+01 189 191 180
-1.080525e+00 8.035486e-02 1.145056e+01 188 190 180
-1.241983e+00 2.383043e-01 1.089723e+01 87 86 120
-1.275135e+00 2.713476e-01 1.081931e+01 75 65 87
-1.948179e+00 1.273239e+00 7.849618e+00 164 169 157
-1.412232e+00 3.929689e-01 1.042938e+01 36 29 47
-2.015968e+00 1.293743e+00 7.754739e+00 166 160 163
-1.164087e+00 9.826877e-02 1.141588e+01 189 191 168
-1.174631e+00 1.239308e-01 1.135602e+01 137 133 146
-1.999073e+00 1.285752e+00 7.808808e+00 79 63 97
-1.976355e+00 1.170973e+00 8.138596e+00 31 35 44
-1.418754e+00 2.966587e-01 1.075447e+01 46 51 67
-1.344120e+00 1.731801e-01 1.118350e+01 184 187 172
-1.209257e+00 4.332227e-02 1.166624e+01 117 111 120
-1.995597e+00 1.099385e+00 8.377549e+00 53 50 84
-1.484898e+00 3.115744e-01 1.072363e+01 61 58 85
-1.270986e+00 5.691468e-02 1.163909e+01 130 125 145
-1.561938e+00 2.897092e-01 1.078316e+01 53 52 71
-1.650694e+00 2.760669e-01 1.084467e+01 173 173 173
-1.661906e+00 2.992225e-01 1.079800e+01 177 175 176
-1.660899e+00 3.010003e-01 1.079906e+01 177 175 176
-1.627647e+00 2.204206e-01 1.104351e+01 74 67 77
-1.650327e+00 2.148798e-01 1.106544e+01 73 69 93
-1.634842e+00 1.833827e-01 1.118306e+01 180 180 179
-1.686138e+00 2.479991e-01 1.098306e+01 119 120 136
-1.686138e+00 2.479991e-01 1.098306e+01 119 120 136
-1.660292e+00 1.783882e-01 1.120534e+01 181 182 184
-1.632320e+00 1.213767e-01 1.142742e+01 127 124 143
-1.624682e+00 1.301375e-01 1.142593e+01 127 124 143
-1.682559e+00 1.375973e-01 1.137367e+01 109 110 133
-1.448495e+00 -1.489393e-01 1.231720e+01 58 56 95
-1.483376e+00 -1.391937e-01 1.229951e+01 60 58 96
-1.805692e+00 2.104180e-01 1.113945e+01 66 70 96
-1.777778e+00 1.504270e-01 1.134673e+01 182 182 187
-1.679492e+00 9.779039e-02 1.160298e+01 169 160 174
-1.909164e+00 1.241711e-01 1.152389e+01 192 193 194
-1.760265e+00 -6.074594e-02 1.211387e+01 162 164 154
-2.019788e+00 1.254356e-01 1.154143e+01 80 78 90
-3.130728e+00 1.432672e+00 7.666526e+00 90 72 89
-2.119006e+00 -2.781408e-02 1.211693e+01 162 164 144
-2.153866e+00 -2.049534e-03 1.207794e+01 55 53 73
-2.213135e+00 4.183001e-02 1.203665e+01 162 165 159
-2.274411e+00 2.366042e-02 1.203030e+01 165 167 151
-2.274411e+00 2.366042e-02 1.203030e+01 165 167 151
-3.300808e+00 1.006092e+00 8.977333e+00 39 41 59
-2.267987e+00 1.048603e+00 1.012145e+01 64 66 66
-2.486943e+00 -2.511323e-01 1.297256e+01 47 49 60
-2.346380e+00 9.702675e-01 1.049136e+01 79 62 55
-2.535292e+00 -2.128855e-01 1.288590e+01 60 58 89
-2.535292e+00 -2.128855e-01 1.288590e+01 60 58 89
-2.365445e+00 9.586781e-01 1.051874e+01 76 59 51
-3.815106e+00 9.082320e-01 9.271584e+00 35 46 49
-3.891277e+00 1.267552e+00 8.428838e+00 186 185 186
-3.121251e+00 -1.518502e-02 1.234441e+01 38 43 47
-2.246854e+00 1.240467e+00 1.047541e+01 72 58 50
-2.932655e+00 -2.281102e-01 1.308925e+01 36 41 69
-2.979996e+00 -1.956628e-01 1.300589e+01 40 36 69
-3.288203e+00 -7.084782e-02 1.258367e+01 169 172 161
-2.390932e+00 1.157106e+00 1.075251e+01 75 64 55
-3.297663e+00 -1.382303e-01 1.288841e+01 42 45 54
-3.408995e+00 -7.744378e-02 1.278260e+01 52 53 83
-5.132519e+00 1.689752e+00 7.193128e+00 106 99 81
-2.215781e+00 1.506025e+00 1.051580e+01 66 53 45
-2.321627e+00 1.446313e+00 1.066166e+01 87 70 59
-3.712319e+00 -1.629877e-01 1.310917e+01 74 75 68
-2.604505e+00 1.210234e+00 1.115123e+01 77 62 43
-4.552292e+00 2.446721e-01 1.169326e+01 35 43 23
-2.322335e+00 1.532086e+00 1.074416e+01 78 64 52
-5.641153e+00 1.147624e+00 9.072844e+00 140 157 86
-2.174051e+00 1.789432e+00 1.054647e+01 68 66 55
-2.174051e+00 1.789432e+00 1.054647e+01 68 66 55
-2.371793e+00 1.603868e+00 1.085390e+01 56 56 47
-2.356565e+00 1.608764e+00 1.085225e+01 56 56 47
-4.541073e+00 -5.835000e-02 1.312471e+01 130 129 129
-5.230500e+00 2.214732e-01 1.191231e+01 118 120 96
-5.177853e+00 2.625640e-01 1.199119e+01 73 89 66
-2.242683e+00 1.790167e+00 1.067172e+01 72 66 60
-6.646549e+00 1.125480e+00 8.955784e+00 135 119 96
-6.646549e+00 1.125480e+00 8.955784e+00 135 119 96
-2.494801e+00 1.575019e+00 1.114685e+01 68 65 57
-5.103332e+00 -5.360337e-02 1.316356e+01 138 139 133
-2.216592e+00 1.878108e+00 1.066927e+01 71 67 59
-2.245088e+00 1.861216e+00 1.071305e+01 59 58 53
-2.238843e+00 1.863346e+00 1.071241e+01 59 58 53
-2.517602e+00 1.602370e+00 1.115350e+01 66 62 54
-2.517602e+00 1.602370e+00 1.115350e+01 66 62 54
-2.170238e+00 1.943230e+00 1.059940e+01 64 59 53
-5.522424e+00 2.501024e-01 1.225431e+01 47 44 43
-7.165163e+00 1.919470e+00 7.006297e+00 122 115 94
-2.488209e+00 1.652236e+00 1.111635e+01 68 62 57
-6.880074e+00 1.034429e+00 9.425769e+00 139 123 107
-2.231943e+00 1.903657e+00 1.070732e+01 52 49 39
-2.258347e+00 1.891127e+00 1.076959e+01 66 63 50
-5.758769e+00 2.626878e-01 1.225597e+01 184 173 170
-5.780622e+00 3.032145e-01 1.214162e+01 97 79 52
-2.388185e+00 1.781405e+00 1.097615e+01 69 67 58
-2.386905e+00 1.781770e+00 1.097580e+01 69 67 58
-2.544841e+00 1.625835e+00 1.125049e+01 68 67 55
-2.518519e+00 1.677146e+00 1.119803e+01 72 69 62
-6.026769e+00 1.355460e-01 1.254355e+01 156 146 133
-6.026769e+00 1.355460e-01 1.254355e+01 156 146 133
-2.402518e+00 1.811315e+00 1.100318e+01 59 52 48
-6.003779e+00 2.208701e-01 1.245095e+01 156 149 130
-6.204637e+00 1.172763e-01 1.264785e+01 150 145 127
-2.353051e+00 1.872190e+00 1.096300e+01 50 51 43
-5.711190e+00 -1.507611e-01 1.368483e+01 75 81 74
-6.463093e+00 1.816486e-01 1.239935e+01 155 150 129
-6.463093e+00 1.816486e-01 1.239935e+01 155 150 129
-6.139174e+00 4.570535e-02 1.296664e+01 155 148 128
-5.645563e+00 -9.486164e-02 1.364271e+01 174 171 168
-6.266308e+00 8.663605e-02 1.278425e+01 149 144 127
-6.464057e+00 1.445861e-01 1.265093e+01 150 145 129
-6.532641e+00 1.211830e-01 1.266953e+01 150 145 129
-2.319799e+00 1.965536e+00 1.092748e+01 62 60 52
-6.468535e+00 2.613787e-01 1.251156e+01 156 149 131
-2.340546e+00 1.955748e+00 1.098560e+01 56 56 43
-6.113155e+00 4.980084e-02 1.335511e+01 132 121 107
-2.508286e+00 1.824409e+00 1.126228e+01 60 57 48
-2.453395e+00 1.926825e+00 1.120684e+01 52 50 41
-7.410557e+00 8.292920e-02 1.306939e+01 139 130 106
-1.576557e+01 3.588319e+00 6.611107e+00 66 60 50
-1.993792e+01 3.358900e+00 7.933911e+00 43 46 51
-1.996105e+01 3.596361e+00 7.844794e+00 50 51 64
-1.996105e+01 3.596361e+00 7.844794e+00 50 51 64
-1.119441e+00 7.002792e-01 9.322448e+00 63 70 76
-9.494833e-01 5.394417e-01 9.924636e+00 91 88 86
-1.163015e+00 3.696827e-01 1.047997e+01 40 37 45
-1.140302e+00 3.202758e-01 1.061946e+01 64 63 95
-1.162242e+00 3.208286e-01 1.063960e+01 171 174 191
-1.278318e+00 1.375832e-01 1.125999e+01 142 134 144
-1.280730e+00 1.521566e-01 1.124765e+01 182 186 157
-1.288802e+00 1.362868e-01 1.126770e+01 194 195 189
-1.389790e+00 1.796798e-01 1.113765e+01 191 190 184
-1.395376e+00 1.480624e-01 1.126325e+01 133 129 148
-1.580508e+00 3.294446e-01 1.068442e+01 61 62 90
-1.580508e+00 3.294446e-01 1.068442e+01 61 62 90
-1.487436e+00 2.028242e-01 1.108381e+01 112 109 126
-1.680722e+00 2.379364e-01 1.100043e+01 168 169 158
-1.617732e+00 1.276499e-01 1.140032e+01 122 119 134
-2.232217e+00 9.786281e-01 8.814194e+00 192 185 176
-1.780546e+00 1.472567e-01 1.136966e+01 176 179 164
-1.861521e+00 1.522236e-01 1.133748e+01 170 175 159
-1.902336e+00 1.732022e-01 1.127623e+01 86 86 115
-1.891496e+00 1.177891e-01 1.151706e+01 117 114 133
-1.958085e+00 1.681948e-01 1.132985e+01 67 67 92
-2.583444e+00 1.059075e+00 8.647857e+00 47 51 69
-1.753648e+00 -5.449174e-02 1.215781e+01 63 62 93
-2.633287e+00 1.047927e+00 8.671642e+00 186 182 162
-2.633247e+00 1.046619e+00 8.671517e+00 186 182 162
-1.945463e+00 1.199103e-01 1.157107e+01 108 108 112
-3.051807e+00 1.418269e+00 7.664306e+00 63 52 43
-3.076352e+00 1.430278e+00 7.651902e+00 169 170 158
-2.074717e+00 1.850912e-02 1.194963e+01 60 57 83
-2.400561e+00 5.474494e-01 1.045734e+01 27 27 30
-2.988639e+00 1.168969e+00 8.460355e+00 46 47 48
-2.218647e+00 4.384197e-02 1.191587e+01 63 64 89
-3.258591e+00 1.416737e+00 7.764861e+00 88 72 78
-2.499784e+00 5.138878e-01 1.066159e+01 63 60 53
-3.212738e+00 1.305743e+00 8.128992e+00 174 175 161
-3.326216e+00 1.391239e+00 7.868949e+00 107 105 100
-2.323641e+00 9.583983e-01 1.006699e+01 71 73 73
-3.512735e+00 1.530533e+00 7.438134e+00 105 91 91
-2.411544e+00 7.439648e-01 1.052976e+01 68 54 50
-3.497909e+00 1.472985e+00 7.655024e+00 171 170 158
-2.459974e+00 -2.473464e-01 1.294712e+01 64 59 90
-2.459974e+00 -2.473464e-01 1.294712e+01 64 59 90
-2.330080e+00 9.412930e-01 1.053820e+01 60 46 37
-2.257929e+00 1.058924e+00 1.042468e+01 70 57 45
-2.624100e+00 -1.286189e-01 1.262382e+01 60 57 95
-2.217274e+00 1.206470e+00 1.018890e+01 62 64 61
-2.394926e+00 9.047120e-01 1.065584e+01 60 46 36
-2.344122e+00 1.009592e+00 1.049330e+01 74 61 53
-2.299838e+00 1.032077e+00 1.049687e+01 74 61 53
-2.747084e+00 6.151387e-03 1.226436e+01 47 48 76
-2.672418e+00 -1.285451e-01 1.265497e+01 46 51 62
-2.457711e+00 8.724826e-01 1.075586e+01 74 60 48
-2.457711e+00 8.724826e-01 1.075586e+01 74 60 48
-2.504163e+00 8.472935e-01 1.078064e+01 64 55 49
-2.774169e+00 -1.628769e-01 1.281938e+01 41 49 65
-2.460248e+00 9.100954e-01 1.079657e+01 68 54 48
-2.406169e+00 9.766626e-01 1.072214e+01 68 55 45
-2.406169e+00 9.766626e-01 1.072214e+01 68 55 45
-3.748478e+00 8.326543e-01 9.597163e+00 200 189 199
-2.950902e+00 -1.240791e-03 1.233849e+01 55 59 76
-2.913461e+00 -1.264780e-01 1.272857e+01 171 173 165
-2.906188e+00 -1.637829e-01 1.285619e+01 47 55 73
-2.586279e+00 8.493822e-01 1.093729e+01 75 58 51
-2.450599e+00 9.876881e-01 1.077523e+01 78 64 55
-2.970690e+00 -1.476718e-01 1.282423e+01 70 73 88
-2.970690e+00 -1.476718e-01 1.282423e+01 70 73 88
-2.310636e+00 1.205044e+00 1.053256e+01 76 66 55
-4.137938e+00 9.810704e-01 9.123036e+00 51 57 51
-3.145629e+00 1.784157e-03 1.238720e+01 64 64 77
-3.119423e+00 -1.560675e-01 1.293492e+01 54 52 76
-3.264541e+00 -1.496171e-01 1.288305e+01 176 171 168
-4.363309e+00 8.349238e-01 9.580620e+00 189 189 183
-2.410746e+00 1.197868e+00 1.073166e+01 78 60 50
-2.403914e+00 1.200720e+00 1.073018e+01 78 60 50
-3.334968e+00 -1.256965e-01 1.289093e+01 35 44 50
-3.544952e+00 -2.549513e-02 1.247613e+01 39 49 63
-3.418352e+00 -1.205957e-01 1.286653e+01 37 47 46
-3.396638e+00 -1.153804e-01 1.287805e+01 167 173 158
-2.307359e+00 1.456277e+00 1.063367e+01 68 54 42
-2.455469e+00 1.327989e+00 1.089616e+01 69 58 46
-2.278150e+00 1.510108e+00 1.066700e+01 88 75 64
-3.832381e+00 -1.727006e-01 1.319465e+01 103 110 116
-2.532386e+00 1.286715e+00 1.108435e+01 83 68 54
-2.402774e+00 1.441412e+00 1.088431e+01 79 63 48
-4.746025e+00 2.529758e-01 1.169834e+01 106 89 69
-4.071752e+00 -2.264547e-01 1.347267e+01 93 93 93
-2.236350e+00 1.773315e+00 1.034763e+01 57 58 53
-2.216463e+00 1.780260e+00 1.034801e+01 57 58 53
-4.787491e+00 2.617185e-01 1.174958e+01 95 78 59
-4.085806e+00 -2.088566e-01 1.347534e+01 158 154 148
-2.299128e+00 1.802205e+00 1.030149e+01 61 63 54
-4.817460e+00 2.350155e-01 1.191086e+01 125 71 60
-2.208844e+00 1.731465e+00 1.059627e+01 83 77 65
-4.559042e+00 7.910313e-02 1.256666e+01 134 121 105
-4.931255e+00 2.667682e-01 1.182162e+01 61 65 39
-4.951075e+00 2.429964e-01 1.188363e+01 128 129 90
-4.925084e+00 1.152216e-01 1.230014e+01 103 105 104
-4.925084e+00 1.152216e-01 1.230014e+01 103 105 104
-2.202357e+00 1.773257e+00 1.059382e+01 72 71 58
-4.959156e+00 1.283887e-01 1.227925e+01 112 115 112
-4.959156e+00 1.283887e-01 1.227925e+01 112 115 112
-2.216927e+00 1.764389e+00 1.061064e+01 66 66 58
-2.219720e+00 1.762433e+00 1.063592e+01 70 66 55
-2.221716e+00 1.760702e+00 1.063393e+01 70 66 55
-2.288698e+00 1.721614e+00 1.076452e+01 77 72 65
-5.200502e+00 2.104059e-01 1.214434e+01 109 118 122
-5.148650e+00 2.334411e-01 1.213440e+01 109 118 122
-4.846634e+00 -5.493255e-02 1.306266e+01 135 140 138
-2.426606e+00 1.608383e+00 1.099318e+01 61 59 52
-4.881371e+00 -1.664389e-02 1.303403e+01 178 173 173
-5.379750e+00 2.480008e-01 1.208683e+01 181 184 184
-4.665096e+00 -2.697988e-01 1.392688e+01 137 132 91
-5.514657e+00 2.690632e-01 1.201156e+01 119 120 117
-5.060195e+00 2.590514e-02 1.298095e+01 124 128 122
-2.398555e+00 1.698762e+00 1.097164e+01 62 59 51
-2.482881e+00 1.616775e+00 1.110878e+01 67 64 55
-2.482881e+00 1.616775e+00 1.110878e+01 67 64 55
-5.687421e+00 2.756339e-01 1.217415e+01 93 88 60
-5.658278e+00 2.785690e-01 1.219590e+01 89 84 55
-5.658278e+00 2.785690e-01 1.219590e+01 89 84 55
-5.705760e+00 2.886550e-01 1.220079e+01 184 175 183
-2.292804e+00 1.873306e+00 1.080237e+01 61 58 50
-5.642637e+00 3.650306e-02 1.294604e+01 136 132 131
-5.811313e+00 2.017405e-02 1.293588e+01 139 137 137
-5.482978e+00 -1.099552e-01 1.362767e+01 83 84 100
-5.816700e+00 -1.236003e-01 1.359580e+01 177 167 173
-5.942513e+00 1.489909e-01 1.287478e+01 149 141 131
-6.273790e+00 1.878627e-01 1.264642e+01 150 143 124
-6.185575e+00 2.186501e-01 1.262721e+01 150 143 124
-2.172880e+00 2.086842e+00 1.065732e+01 51 48 39
-5.808444e+00 -5.325047e-02 1.357026e+01 174 174 172
-6.315557e+00 2.086005e-01 1.270621e+01 150 146 120
-2.171137e+00 2.123010e+00 1.067004e+01 59 57 44
-2.183294e+00 2.120072e+00 1.067001e+01 59 57 44
-6.358899e+00 -2.207813e-02 1.345466e+01 177 174 171
-2.274012e+00 2.064807e+00 1.087623e+01 58 56 39
-2.283698e+00 2.109839e+00 1.088606e+01 53 52 50
-7.798809e+00 1.199494e-01 1.297676e+01 141 127 90
-1.870764e+01 1.293418e-01 1.794378e+01 58 68 86
-1.109360e+00 3.434693e-01 1.057029e+01 163 165 159
-1.103023e+00 2.278744e-01 1.095944e+01 104 97 104
-1.209972e+00 1.246914e-01 1.131027e+01 178 181 160
-1.942260e+00 1.098525e+00 8.336212e+00 66 67 86
-2.019786e+00 1.175637e+00 8.097957e+00 74 66 108
-2.031447e+00 1.199764e+00 8.067445e+00 71 73 77
-1.522411e+00 1.995171e-01 1.109112e+01 165 163 147
-1.424750e+00 9.327278e-02 1.151443e+01 144 141 147
-1.706072e+00 1.202817e-01 1.143555e+01 176 178 160
-1.869124e+00 2.061926e-01 1.114439e+01 87 87 111
-1.869124e+00 2.061926e-01 1.114439e+01 87 87 111
-1.538085e+00 -1.912862e-01 1.243115e+01 72 65 95
-2.531191e+00 1.275578e+00 8.061155e+00 82 78 76
-2.493377e+00 1.017491e+00 8.737535e+00 182 177 180
-1.935620e+00 1.160422e-01 1.153197e+01 107 103 118
-1.933033e+00 1.187824e-01 1.153173e+01 107 103 118
-1.882141e+00 7.023789e-04 1.196509e+01 134 138 113
-2.033829e+00 1.713919e-01 1.155355e+01 155 153 170
-3.056659e+00 1.425671e+00 7.652378e+00 168 164 154
-2.343831e+00 5.811047e-01 1.038214e+01 27 28 23
-2.089698e+00 6.874693e-03 1.200584e+01 134 145 112
-2.197570e+00 7.978799e-02 1.175705e+01 94 90 122
-2.190746e+00 8.319573e-02 1.175646e+01 94 90 122
-3.185443e+00 1.453086e+00 7.594397e+00 169 157 164
-2.996053e+00 1.161990e+00 8.468397e+00 182 178 180
-2.288685e+00 3.421134e-02 1.195559e+01 157 155 166
-2.379067e+00 6.632277e-01 1.050840e+01 69 52 40
-2.530380e+00 5.416600e-01 1.066045e+01 74 54 44
-2.341814e+00 7.435808e-01 1.046874e+01 62 45 40
-3.508845e+00 1.518252e+00 7.498883e+00 108 103 102
-2.512248e+00 -1.149320e-02 1.218783e+01 53 53 56
-2.469529e+00 -1.656623e-01 1.274351e+01 69 73 92
-2.486667e+00 -1.678829e-01 1.274199e+01 170 169 176
-2.491520e+00 -2.564442e-01 1.295784e+01 146 147 138
-2.710770e+00 3.150823e-02 1.211624e+01 165 166 170
-2.565141e+00 6.736408e-01 1.087157e+01 85 64 53
-2.621901e+00 -1.135327e-01 1.255872e+01 48 49 57
-2.202801e+00 1.132245e+00 1.032095e+01 58 46 41
-2.719584e+00 -1.353553e-01 1.261704e+01 68 70 83
-3.906316e+00 1.495524e+00 7.690445e+00 171 174 157
-2.712838e+00 -1.241140e-01 1.263349e+01 72 72 95
-2.214843e+00 1.194508e+00 1.035636e+01 40 36 27
-2.425348e+00 9.269484e-01 1.073044e+01 64 53 49
-2.425348e+00 9.269484e-01 1.073044e+01 64 53 49
-3.715449e+00 8.982565e-01 9.383111e+00 181 180 189
-2.899409e+00 -7.748695e-02 1.247815e+01 51 53 68
-2.870001e+00 -8.650771e-02 1.253575e+01 66 65 89
-2.923083e+00 -5.404003e-02 1.243000e+01 171 173 153
-2.999862e+00 3.983935e-02 1.214898e+01 153 159 123
-3.050369e+00 3.160416e-02 1.214028e+01 169 169 153
-2.817025e+00 -1.905645e-01 1.293232e+01 51 52 70
-2.841544e+00 -1.789785e-01 1.288567e+01 58 57 76
-2.914201e+00 -1.294843e-01 1.270760e+01 173 169 172
-2.914201e+00 -1.294843e-01 1.270760e+01 173 169 172
-2.897336e+00 -1.701221e-01 1.281959e+01 177 175 177
-2.421044e+00 1.005590e+00 1.075515e+01 74 56 44
-2.469272e+00 9.802674e-01 1.075621e+01 74 56 44
-4.297831e+00 1.649585e+00 7.312267e+00 125 118 101
-2.884020e+00 -2.388187e-01 1.311815e+01 55 62 71
-4.152179e+00 1.159426e+00 8.699020e+00 176 167 155
-3.265445e+00 -9.040354e-03 1.239141e+01 79 86 98
-3.200512e+00 -7.814702e-02 1.260225e+01 78 78 95
-4.095408e+00 8.357700e-01 9.631702e+00 184 183 178
-3.268755e+00 -5.042192e-02 1.255280e+01 168 165 154
-4.227092e+00 8.539291e-01 9.519526e+00 184 184 180
-4.227092e+00 8.539291e-01 9.519526e+00 184 184 180
-3.163358e+00 -1.697126e-01 1.296186e+01 151 152 143
-2.227878e+00 1.413746e+00 1.043300e+01 78 64 54
-4.410335e+00 8.477998e-01 9.559775e+00 186 186 182
-3.309020e+00 -1.384900e-01 1.291343e+01 56 65 80
-3.423287e+00 -4.408175e-02 1.260586e+01 152 161 136
-3.257949e+00 -2.690916e-01 1.334154e+01 114 116 113
-3.794713e+00 -1.625503e-01 1.321191e+01 114 115 110
-2.497076e+00 1.302363e+00 1.099849e+01 73 56 44
-3.866866e+00 -1.874057e-01 1.332271e+01 176 175 179
-4.712121e+00 2.145578e-01 1.195054e+01 128 92 69
-4.524358e+00 8.880410e-02 1.252629e+01 149 145 143
-2.190689e+00 1.746676e+00 1.054180e+01 27 27 20
-4.875652e+00 2.305573e-01 1.191501e+01 149 129 111
-4.550332e+00 8.837923e-02 1.254366e+01 179 169 172
-4.883944e+00 2.489541e-01 1.187558e+01 85 55 41
-4.884461e+00 2.869660e-01 1.180105e+01 94 99 69
-5.032664e+00 2.131327e-01 1.185084e+01 43 42 23
-4.272360e+00 -2.179121e-01 1.354903e+01 90 96 83
-4.423679e+00 -1.218052e-01 1.321925e+01 124 122 124
-5.012842e+00 2.581428e-01 1.183365e+01 133 130 89
-4.819877e+00 1.410873e-01 1.227773e+01 183 174 176
-4.330602e+00 -2.455655e-01 1.368449e+01 61 79 60
-5.117009e+00 2.631962e-01 1.183708e+01 141 136 126
-4.667590e+00 -8.638314e-02 1.313040e+01 132 131 134
-4.667590e+00 -8.638314e-02 1.313040e+01 132 131 134
-4.874419e+00 6.112831e-02 1.278240e+01 172 179 184
-5.340462e+00 1.725069e-01 1.217198e+01 180 182 180
-5.374001e+00 1.836287e-01 1.213091e+01 114 117 111
-5.264706e+00 2.276345e-01 1.211026e+01 114 117 111
-4.907776e+00 1.713084e-02 1.296563e+01 136 132 131
-5.108921e+00 -3.338466e-02 1.298306e+01 128 128 128
-4.973407e+00 -4.776703e-03 1.302997e+01 137 139 138
-4.658721e+00 -3.022761e-01 1.400612e+01 137 133 105
-4.693238e+00 -2.842525e-01 1.397072e+01 158 154 131
-4.662548e+00 -3.024399e-01 1.404699e+01 134 131 97
-4.681963e+00 -3.203614e-01 1.407297e+01 134 129 96
-4.689290e+00 -3.075034e-01 1.409591e+01 127 125 92
-5.317052e+00 -8.545666e-03 1.290842e+01 137 137 135
-5.559161e+00 1.420814e-01 1.237220e+01 153 151 131
-4.775143e+00 -2.782338e-01 1.399673e+01 116 121 126
-5.216439e+00 6.565817e-02 1.286924e+01 180 174 176
-5.191282e+00 6.458597e-02 1.290199e+01 138 137 134
-4.830091e+00 -2.722940e-01 1.399903e+01 59 80 72
-5.318908e+00 2.787119e-02 1.291630e+01 139 137 133
-5.722763e+00 1.636843e-01 1.231624e+01 160 149 143
-2.213705e+00 1.920028e+00 1.065929e+01 23 24 14
-5.623295e+00 2.784323e-01 1.217781e+01 180 157 156
-5.727157e+00 2.251806e-01 1.231015e+01 179 162 157
-5.245722e+00 -2.190304e-01 1.380670e+01 167 162 163
-5.252580e+00 -1.838272e-01 1.377517e+01 91 90 97
-5.883172e+00 3.049790e-01 1.213732e+01 95 87 56
-2.410716e+00 1.763233e+00 1.105611e+01 72 69 59
-6.134528e+00 2.134455e-01 1.222289e+01 97 86 59
-2.425448e+00 1.793305e+00 1.109153e+01 69 65 54
-5.671121e+00 -6.901826e-02 1.356050e+01 91 86 94
-5.855172e+00 -1.165538e-01 1.368100e+01 132 132 129
-2.361616e+00 1.939433e+00 1.102395e+01 61 59 48
-2.361616e+00 1.939433e+00 1.102395e+01 61 59 48
-6.450686e+00 -4.722075e-02 1.351078e+01 146 143 132
-6.207098e+00 4.170902e-02 1.342567e+01 146 143 132
-6.563998e+00 -3.852700e-04 1.333429e+01 140 133 111
-2.365913e+00 1.971550e+00 1.104423e+01 61 58 50
-2.472875e+00 1.880209e+00 1.120146e+01 59 55 46
-2.476317e+00 1.878720e+00 1.120197e+01 59 55 46
-2.392266e+00 1.994915e+00 1.109227e+01 63 60 51
-2.336562e+00 2.071362e+00 1.099470e+01 27 22 18
-2.479749e+00 1.231460e+00 8.150812e+00 146 138 127
-1.211566e+00 6.997194e-01 9.411007e+00 127 126 122
-1.569658e+00 1.799746e-01 1.117054e+01 201 200 202
-1.139086e+00 2.384810e-01 1.090816e+01 205 205 200
-2.308656e+00 6.118373e-01 1.030812e+01 26 26 27
-1.228749e+00 3.814893e-02 1.163749e+01 176 180 172
-2.497392e+00 -1.812852e-01 1.267630e+01 174 171 170
-3.131952e+00 -5.967735e-02 1.241184e+01 180 178 177
-2.276384e+00 1.748266e+00 1.075211e+01 19 19 16
-1.652237e+01 2.624694e+00 7.214920e+00 27 27 27
-2.117148e+00 1.216114e+00 8.065523e+00 164 173 151
-7.885519e+00 -5.552013e+00 1.285104e+01 142 135 134
-8.066163e+00 -5.574330e+00 1.292118e+01 130 119 125
-1.298488e+00 4.629626e-02 1.157867e+01 58 53 94
-1.298956e+00 7.075984e-02 1.155690e+01 177 178 182
-1.430387e+00 7.950066e-02 1.152604e+01 90 87 109
-2.708420e+00 -1.202052e-01 1.256129e+01 171 177 170
-3.244000e+00 -1.247084e-01 1.270345e+01 182 176 173
-5.333436e+00 1.290445e+00 8.592523e+00 136 155 85
-2.233772e+00 1.451080e+00 1.052302e+01 54 42 36
-2.474342e+00 1.950959e+00 1.124312e+01 52 48 38
-1.008275e+00 3.319381e-01 1.055860e+01 156 150 152
-6.121834e+00 -3.545006e+00 1.202734e+01 109 103 110
-1.510107e+00 2.022492e-01 1.108166e+01 189 190 186
-1.636669e+00 1.241419e-01 1.141054e+01 200 200 201
-3.246299e+00 -1.825406e-01 1.291986e+01 180 176 175
-4.835680e+00 1.929685e-01 1.210886e+01 57 78 77
-4.308966e+00 -2.230070e-01 1.342149e+01 75 85 75
