ply
format ascii 1.0
element face 0
property list uchar int vertex_indices
element vertex 300
property float x
property float y
property float z
property uchar diffuse_red
property uchar diffuse_green
property uchar diffuse_blue
end_header
-9.288007e-01 -1.552188e-01 -7.043774e+00 30 31 52
-9.278873e-01 -1.573084e-01 -7.041804e+00 23 21 21
-9.241940e-01 -1.574506e-01 -7.045117e+00 26 27 30
-9.251345e-01 -1.613160e-01 -7.039332e+00 93 90 102
-9.237227e-01 -1.613735e-01 -7.040784e+00 95 93 105
-9.365949e-01 -1.512632e-01 -7.045979e+00 64 64 74
-9.236605e-01 -1.613432e-01 -7.040568e+00 95 93 105
-9.284959e-01 -1.610353e-01 -7.036844e+00 96 92 107
-9.294347e-01 -1.608712e-01 -7.036102e+00 97 94 113
-9.194944e-01 -1.618334e-01 -7.044688e+00 90 89 105
-9.369157e-01 -1.539298e-01 -7.044274e+00 55 58 65
-9.372198e-01 -1.653532e-01 -7.040021e+00 50 56 63
-9.149830e-01 -1.688325e-01 -7.050279e+00 103 105 104
-9.347163e-01 -1.605806e-01 -7.034834e+00 39 48 51
-9.352007e-01 -1.673813e-01 -7.038661e+00 76 83 93
-9.295231e-01 -1.608281e-01 -7.036697e+00 97 94 113
-9.194562e-01 -1.617801e-01 -7.043620e+00 90 89 105
-9.388308e-01 -1.523694e-01 -7.042468e+00 66 68 73
-9.318217e-01 -1.628713e-01 -7.034876e+00 86 97 119
-9.267353e-01 -1.522941e-01 -7.050675e+00 76 73 87
-1.063002e+00 -4.689235e-02 -7.320242e+00 118 116 117
-9.182124e-01 -1.686506e-01 -7.049648e+00 88 94 100
-9.334246e-01 -1.675007e-01 -7.039246e+00 70 76 97
-9.360462e-01 -1.641521e-01 -7.034640e+00 88 93 97
-9.331778e-01 -1.729375e-01 -7.033620e+00 176 176 176
-9.150401e-01 -1.733887e-01 -7.049314e+00 171 173 170
-9.222295e-01 -1.534467e-01 -7.053081e+00 66 65 81
-1.063694e+00 -4.697795e-02 -7.334501e+00 124 122 123
-9.360696e-01 -1.678854e-01 -7.037814e+00 177 179 178
-9.258984e-01 -1.678899e-01 -7.044199e+00 75 86 108
-9.367880e-01 -1.668420e-01 -7.037952e+00 46 53 59
-9.363885e-01 -1.607048e-01 -7.035833e+00 151 160 163
-9.283122e-01 -1.522347e-01 -7.049153e+00 78 76 90
-9.258364e-01 -1.679973e-01 -7.044516e+00 73 84 106
-9.203326e-01 -1.684453e-01 -7.048160e+00 77 85 107
-9.366315e-01 -1.511978e-01 -7.044758e+00 65 65 75
-1.070669e+00 -3.944067e-02 -7.329228e+00 10 12 13
-9.367043e-01 -1.656499e-01 -7.036096e+00 90 96 102
-9.227218e-01 -1.602572e-01 -7.042979e+00 32 30 38
-9.283608e-01 -1.582235e-01 -7.040611e+00 83 82 104
-9.375194e-01 -1.576137e-01 -7.037145e+00 99 104 108
-9.402724e-01 -1.534914e-01 -7.041349e+00 86 90 93
-9.354559e-01 -1.633407e-01 -7.034734e+00 95 102 106
-9.350440e-01 -1.631807e-01 -7.033451e+00 95 102 106
-9.344326e-01 -1.617038e-01 -7.033937e+00 80 89 92
-9.256453e-01 -1.582383e-01 -7.042547e+00 65 63 66
-9.263348e-01 -1.581876e-01 -7.041955e+00 64 62 63
-9.251526e-01 -1.573918e-01 -7.044144e+00 65 65 67
-9.251582e-01 -1.573539e-01 -7.044044e+00 65 65 67
-9.270087e-01 -1.572555e-01 -7.042563e+00 66 64 65
-9.280865e-01 -1.564040e-01 -7.042888e+00 63 65 69
-9.274191e-01 -1.563835e-01 -7.043374e+00 68 71 74
-9.274156e-01 -1.563815e-01 -7.043368e+00 68 71 74
-9.342893e-01 -1.412065e-01 -7.050000e+00 183 183 183
-9.129172e-01 -1.741684e-01 -7.049202e+00 179 179 178
-9.465511e-01 -1.518434e-01 -7.051995e+00 121 123 122
-9.349221e-01 -1.526095e-01 -7.043422e+00 64 61 80
-9.353478e-01 -1.623059e-01 -7.033586e+00 47 54 60
-9.361251e-01 -1.609295e-01 -7.034948e+00 148 156 159
-9.353574e-01 -1.653688e-01 -7.032380e+00 112 120 125
-9.357450e-01 -1.653292e-01 -7.033704e+00 112 120 125
-9.343856e-01 -1.617545e-01 -7.033695e+00 91 100 103
-1.060673e+00 -1.770834e-01 -7.310908e+00 166 168 164
-1.079777e+00 -2.272099e-02 -7.356745e+00 49 50 50
-1.062241e+00 -2.822980e-02 -7.320925e+00 95 94 90
-1.062241e+00 -2.822980e-02 -7.320925e+00 95 94 90
-9.257319e-01 -1.552064e-01 -7.046228e+00 33 35 51
-9.354959e-01 -1.647609e-01 -7.036651e+00 48 54 60
-9.361987e-01 -1.604942e-01 -7.035131e+00 152 160 163
-9.290936e-01 -1.540150e-01 -7.045461e+00 92 88 105
-9.251324e-01 -1.612870e-01 -7.039324e+00 98 91 109
-9.291962e-01 -1.565834e-01 -7.041468e+00 80 82 108
-9.284088e-01 -1.610257e-01 -7.036426e+00 98 94 111
-9.353439e-01 -1.628536e-01 -7.035539e+00 154 159 163
-9.248741e-01 -1.564285e-01 -7.045236e+00 62 66 69
-9.392852e-01 -1.533114e-01 -7.039865e+00 138 144 148
-1.017988e+00 -1.596808e-01 -7.214128e+00 55 57 54
-9.351820e-01 -1.590413e-01 -7.034246e+00 43 51 54
-9.245371e-01 -1.682774e-01 -7.046112e+00 81 89 110
-9.195259e-01 -1.620968e-01 -7.045770e+00 93 90 109
-9.334209e-01 -1.674389e-01 -7.039342e+00 72 78 100
-9.219070e-01 -1.539460e-01 -7.051205e+00 68 65 82
-9.348224e-01 -1.630292e-01 -7.033545e+00 107 114 120
-9.348224e-01 -1.630292e-01 -7.033545e+00 107 114 120
-9.370420e-01 -1.605798e-01 -7.038579e+00 154 159 163
-9.056214e-01 -1.674522e-01 -7.044885e+00 132 132 132
-9.391492e-01 -1.521113e-01 -7.044285e+00 66 73 76
-9.364300e-01 -1.607895e-01 -7.036325e+00 152 160 163
-9.367137e-01 -1.650154e-01 -7.036576e+00 106 113 119
-9.367137e-01 -1.650154e-01 -7.036576e+00 106 113 119
-9.376751e-01 -1.663944e-01 -7.037794e+00 131 135 138
-9.376751e-01 -1.663944e-01 -7.037794e+00 131 135 138
-9.364147e-01 -1.594559e-01 -7.037861e+00 94 101 107
-9.269905e-01 -1.574103e-01 -7.042722e+00 69 69 70
-9.408150e-01 -1.533629e-01 -7.044441e+00 135 139 142
-1.141637e+00 -2.221925e-01 -7.371862e+00 52 53 56
-9.255187e-01 -1.563662e-01 -7.044909e+00 66 67 72
-9.376051e-01 -1.548326e-01 -7.038551e+00 84 87 92
-9.371541e-01 -1.652011e-01 -7.039745e+00 48 55 61
-9.048165e-01 -1.686058e-01 -7.047171e+00 132 132 132
-9.176688e-01 -1.697882e-01 -7.055861e+00 163 164 166
-9.377892e-01 -1.643686e-01 -7.036602e+00 67 78 82
-9.427408e-01 -1.525385e-01 -7.045723e+00 179 183 184
-9.270944e-01 -1.536909e-01 -7.046199e+00 99 95 110
-9.406792e-01 -1.530330e-01 -7.040803e+00 79 85 88
-9.365829e-01 -1.503491e-01 -7.041723e+00 70 68 82
-9.385161e-01 -1.505234e-01 -7.040098e+00 85 86 89
-9.270116e-01 -1.573271e-01 -7.042666e+00 66 66 68
-9.245703e-01 -1.554216e-01 -7.043277e+00 30 28 39
-9.287083e-01 -1.563600e-01 -7.043279e+00 22 22 32
-9.406972e-01 -1.640646e-01 -7.015263e+00 32 34 33
-9.406972e-01 -1.640646e-01 -7.015263e+00 32 34 33
-9.357300e-01 -1.650539e-01 -7.043107e+00 38 46 49
-9.416543e-01 -1.649580e-01 -7.016672e+00 15 17 15
-9.256122e-01 -1.564386e-01 -7.042764e+00 21 22 24
-9.417650e-01 -1.657620e-01 -7.016718e+00 5 7 4
-9.407496e-01 -1.586553e-01 -7.049010e+00 99 108 113
-9.369969e-01 -1.524104e-01 -7.010617e+00 108 110 107
-9.418557e-01 -1.659085e-01 -7.016276e+00 30 32 29
-9.356109e-01 -1.489519e-01 -7.007569e+00 3 5 2
-9.372347e-01 -1.667386e-01 -7.037319e+00 72 76 79
-9.354616e-01 -1.490932e-01 -7.007831e+00 49 51 48
-9.354616e-01 -1.490932e-01 -7.007831e+00 49 51 48
-9.185835e-01 -1.693508e-01 -7.046138e+00 165 167 166
-9.744254e-01 -2.499917e-01 -7.121915e+00 174 173 174
-1.042848e+00 -2.988775e-01 -7.260744e+00 35 34 32
-1.042848e+00 -2.988775e-01 -7.260744e+00 35 34 32
-9.402360e-01 -1.708980e-01 -7.040747e+00 179 179 177
-9.365630e-01 -1.505794e-01 -7.009792e+00 62 64 61
-9.389655e-01 -1.597849e-01 -7.014823e+00 71 71 68
-9.369990e-01 -1.516552e-01 -7.010449e+00 130 131 129
-9.380706e-01 -1.534939e-01 -7.011723e+00 28 29 26
-9.270543e-01 -1.592548e-01 -7.037376e+00 33 25 25
-1.009101e+00 -2.660862e-02 -7.230413e+00 73 76 75
-9.325344e-01 -1.672052e-01 -7.039021e+00 63 72 97
-9.311759e-01 -1.678698e-01 -7.040181e+00 79 83 102
-9.237128e-01 -1.615184e-01 -7.039714e+00 97 93 107
-9.348091e-01 -1.558039e-01 -7.010125e+00 5 5 3
-9.352415e-01 -1.569979e-01 -7.003748e+00 66 66 64
-9.360519e-01 -1.565745e-01 -7.004100e+00 8 10 7
-9.384481e-01 -1.653876e-01 -7.039247e+00 66 76 81
-9.401022e-01 -1.527415e-01 -7.010096e+00 7 9 6
-9.353346e-01 -1.569417e-01 -7.004469e+00 5 7 4
-9.371211e-01 -1.564302e-01 -7.004874e+00 81 83 80
-9.351474e-01 -1.570758e-01 -7.004188e+00 61 63 60
-9.340881e-01 -1.544122e-01 -7.009992e+00 57 64 77
-9.352698e-01 -1.571219e-01 -7.002446e+00 67 69 66
-9.369850e-01 -1.566000e-01 -7.003702e+00 8 10 7
-9.364510e-01 -1.568951e-01 -7.004011e+00 87 90 87
-9.369215e-01 -1.565301e-01 -7.003854e+00 79 81 77
-9.330996e-01 -1.553517e-01 -7.008866e+00 12 12 10
-9.335039e-01 -1.551852e-01 -7.008260e+00 41 41 39
-9.349029e-01 -1.550896e-01 -7.008110e+00 76 33 35
-9.360228e-01 -1.568516e-01 -7.004767e+00 52 53 50
-9.343406e-01 -1.565652e-01 -7.008021e+00 39 41 38
-9.352808e-01 -1.550760e-01 -7.008890e+00 72 42 46
-9.368168e-01 -1.503338e-01 -7.010801e+00 37 37 35
-9.359353e-01 -1.566243e-01 -7.004919e+00 0 1 0
-9.349363e-01 -1.563586e-01 -7.006255e+00 5 7 4
-9.373332e-01 -1.563015e-01 -7.005332e+00 83 85 83
-9.350742e-01 -1.552471e-01 -7.007762e+00 63 64 59
-9.362111e-01 -1.547400e-01 -7.011015e+00 52 52 52
-9.396533e-01 -1.539919e-01 -7.008622e+00 198 200 195
-9.360187e-01 -1.501725e-01 -7.013282e+00 110 109 106
-9.360187e-01 -1.501725e-01 -7.013282e+00 110 109 106
-9.244904e-01 -1.682799e-01 -7.044266e+00 76 84 103
-9.110745e-01 -1.481800e-01 -7.048189e+00 178 178 178
-9.484771e-01 -1.491996e-01 -7.024578e+00 81 83 80
-9.471366e-01 -1.532043e-01 -7.023509e+00 4 6 2
-9.240820e-01 -1.613579e-01 -7.040909e+00 96 91 104
-9.432160e-01 -1.495805e-01 -7.025513e+00 15 14 12
-9.453342e-01 -1.504133e-01 -7.025036e+00 136 138 135
-9.430742e-01 -1.492119e-01 -7.025495e+00 80 79 77
-9.419783e-01 -1.521438e-01 -7.024114e+00 84 84 76
-9.509600e-01 -1.508135e-01 -7.024412e+00 46 48 49
-9.501306e-01 -1.481515e-01 -7.023933e+00 42 44 41
-9.538873e-01 -1.484251e-01 -7.024016e+00 102 104 99
-9.255235e-01 -1.560286e-01 -7.044412e+00 60 59 65
-9.339059e-01 -1.614899e-01 -7.036966e+00 42 47 53
-9.349414e-01 -1.532027e-01 -7.041449e+00 66 65 81
-9.396962e-01 -1.626712e-01 -7.039622e+00 67 72 75
-9.332554e-01 -1.600537e-01 -7.034898e+00 90 93 98
-9.358228e-01 -1.581454e-01 -7.036144e+00 45 53 56
-9.358508e-01 -1.581176e-01 -7.036309e+00 45 53 56
-9.351725e-01 -1.646380e-01 -7.035022e+00 38 47 54
-9.360228e-01 -1.620005e-01 -7.036107e+00 47 54 60
-9.359115e-01 -1.616992e-01 -7.033667e+00 221 226 230
-9.359209e-01 -1.616942e-01 -7.033716e+00 221 226 230
-9.354636e-01 -1.651751e-01 -7.033221e+00 148 155 161
-9.349624e-01 -1.639819e-01 -7.033027e+00 163 170 177
-9.349585e-01 -1.639384e-01 -7.033146e+00 163 170 177
-9.312776e-01 -1.678302e-01 -7.040703e+00 72 78 103
-9.379894e-01 -1.655874e-01 -7.035317e+00 188 191 194
-9.376370e-01 -1.656539e-01 -7.033169e+00 102 106 109
-9.339726e-01 -1.628701e-01 -7.033340e+00 46 50 56
-1.085015e+00 4.164655e-02 -7.324217e+00 138 136 128
-1.070002e+00 3.679114e-02 -7.336940e+00 75 77 74
-9.401001e-01 -1.513332e-01 -7.011765e+00 83 85 82
-9.401379e-01 -1.556940e-01 -7.008467e+00 104 109 105
-9.421138e-01 -1.482108e-01 -7.011832e+00 3 4 0
-9.381962e-01 -1.555036e-01 -7.008440e+00 86 88 85
-9.365416e-01 -1.572000e-01 -7.004008e+00 88 90 87
-9.424990e-01 -1.502334e-01 -7.011309e+00 2 4 2
-9.417556e-01 -1.526880e-01 -7.010002e+00 134 134 132
-9.405444e-01 -1.519770e-01 -7.011743e+00 89 91 88
-9.424462e-01 -1.476299e-01 -7.011782e+00 107 109 105
-9.405577e-01 -1.544375e-01 -7.008291e+00 127 127 124
-9.423988e-01 -1.483450e-01 -7.011682e+00 5 5 0
-9.366901e-01 -1.464333e-01 -7.013689e+00 13 13 13
-9.309557e-01 -1.587879e-01 -7.004944e+00 11 12 11
-9.337661e-01 -1.555887e-01 -7.008936e+00 41 41 39
-9.411849e-01 -1.525727e-01 -7.010653e+00 131 132 130
-9.344042e-01 -1.564624e-01 -7.012520e+00 175 176 174
-9.409685e-01 -1.494897e-01 -7.012481e+00 7 7 5
-9.410231e-01 -1.481080e-01 -7.011709e+00 107 104 99
-9.351084e-01 -1.575516e-01 -7.002265e+00 56 58 57
-9.392104e-01 -1.528029e-01 -7.009749e+00 8 10 7
-9.414024e-01 -1.494894e-01 -7.009882e+00 101 101 101
-9.405961e-01 -1.548835e-01 -7.008200e+00 111 111 109
-9.404106e-01 -1.540879e-01 -7.008706e+00 60 60 58
-9.409280e-01 -1.528601e-01 -7.009567e+00 85 86 81
-9.425970e-01 -1.527540e-01 -7.010357e+00 98 92 74
-9.427927e-01 -1.504860e-01 -7.011366e+00 101 103 100
-9.426516e-01 -1.500686e-01 -7.011176e+00 108 109 110
-9.427595e-01 -1.478020e-01 -7.011983e+00 95 95 89
-9.958572e-01 2.754940e-02 -7.228875e+00 116 118 117
-9.860831e-01 1.807444e-03 -7.192243e+00 22 26 26
-9.906256e-01 1.652660e-03 -7.187830e+00 96 97 94
-9.829526e-01 -1.145915e-03 -7.180797e+00 118 121 114
-1.014049e+00 3.296441e-02 -7.246556e+00 56 58 55
-9.322796e-01 -1.460648e-01 -7.001778e+00 6 5 1
-9.403512e-01 -1.485606e-01 -7.046724e+00 180 182 181
-9.343253e-01 -1.628366e-01 -7.032595e+00 163 171 173
-9.398935e-01 -1.625587e-01 -7.040245e+00 72 76 81
-9.373729e-01 -1.640596e-01 -7.037489e+00 56 61 65
-9.140484e-01 -1.624739e-01 -7.049738e+00 50 51 55
-9.278736e-01 -1.682398e-01 -7.042368e+00 84 87 106
-9.368773e-01 -1.660394e-01 -7.036342e+00 75 86 91
-9.362340e-01 -1.640208e-01 -7.035046e+00 131 135 140
-9.331833e-01 -1.619601e-01 -7.034378e+00 41 46 52
-9.353524e-01 -1.527349e-01 -7.042581e+00 75 75 87
-9.304736e-01 -1.679162e-01 -7.041628e+00 89 92 111
-9.201343e-01 -1.578311e-01 -6.987015e+00 0 255 0
-9.236854e-01 -1.632620e-01 -7.036592e+00 255 255 0
-9.215869e-01 -1.647792e-01 -6.987368e+00 255 0 0
-9.257079e-01 -1.617280e-01 -7.037104e+00 255 255 0
-9.220877e-01 -1.463723e-01 -6.986190e+00 0 255 0
-9.278041e-01 -1.584918e-01 -7.034361e+00 255 255 0
-9.212863e-01 -1.535206e-01 -6.988899e+00 255 0 0
-9.237660e-01 -1.701345e-01 -7.035992e+00 255 255 0
-9.217386e-01 -1.568199e-01 -6.988243e+00 0 255 0
-9.253133e-01 -1.659842e-01 -7.037266e+00 255 255 0
-9.219894e-01 -1.594123e-01 -6.987727e+00 255 0 0
-9.248771e-01 -1.626327e-01 -7.037539e+00 255 255 0
-9.220909e-01 -1.661596e-01 -6.986081e+00 0 255 0
-9.288563e-01 -1.752164e-01 -7.034786e+00 255 255 0
-9.225792e-01 -1.669174e-01 -6.986169e+00 255 0 0
-9.291930e-01 -1.692849e-01 -7.035673e+00 255 255 0
-9.227386e-01 -1.676384e-01 -6.986342e+00 0 255 0
-9.292965e-01 -1.654464e-01 -7.035862e+00 255 255 0
-9.227887e-01 -1.672498e-01 -6.986716e+00 255 0 0
-9.284069e-01 -1.606762e-01 -7.035963e+00 255 255 0
-9.265196e-01 -1.572990e-01 -6.996760e+00 0 255 0
-9.307670e-01 -1.660687e-01 -7.045802e+00 255 255 0
-9.271987e-01 -1.667599e-01 -6.997718e+00 255 0 0
-9.304767e-01 -1.667459e-01 -7.047611e+00 255 255 0
-9.263105e-01 -1.449763e-01 -6.990208e+00 0 255 0
-9.291918e-01 -1.649609e-01 -7.035950e+00 255 255 0
-9.261797e-01 -1.436502e-01 -6.990405e+00 255 0 0
-9.294141e-01 -1.624768e-01 -7.036613e+00 255 255 0
-9.260813e-01 -1.427747e-01 -6.990656e+00 0 255 0
-9.315296e-01 -1.596547e-01 -7.037404e+00 255 255 0
-9.263386e-01 -1.431549e-01 -6.990774e+00 255 0 0
-9.322498e-01 -1.560527e-01 -7.038719e+00 255 255 0
-9.228882e-01 -1.671635e-01 -6.986435e+00 0 255 0
-9.286418e-01 -1.577060e-01 -7.035194e+00 255 255 0
-9.316166e-01 -1.446912e-01 -7.000485e+00 255 0 0
-9.293892e-01 -1.690532e-01 -7.044092e+00 255 255 0
-9.289379e-01 -1.516887e-01 -6.996433e+00 0 255 0
-9.279525e-01 -1.678046e-01 -7.043754e+00 255 255 0
-9.267457e-01 -1.398109e-01 -6.990285e+00 255 0 0
-9.285025e-01 -1.607026e-01 -7.035678e+00 255 255 0
-9.275133e-01 -1.887876e-01 -7.091772e+00 0 255 0
-9.236387e-01 -2.129143e-01 -7.135394e+00 255 255 0
-9.264435e-01 -1.224752e-01 -6.995613e+00 255 0 0
-9.325258e-01 -1.542500e-01 -7.033736e+00 255 255 0
-9.265875e-01 -1.534984e-01 -6.992712e+00 0 255 0
-9.303659e-01 -1.593821e-01 -7.042221e+00 255 255 0
-9.238790e-01 -1.718109e-01 -6.990022e+00 255 0 0
-9.279378e-01 -1.618746e-01 -7.038857e+00 255 255 0
-9.238961e-01 -1.742282e-01 -6.989664e+00 0 255 0
-9.292690e-01 -1.655060e-01 -7.038603e+00 255 255 0
-9.278521e-01 -1.703766e-01 -6.999250e+00 255 0 0
-9.301688e-01 -1.644999e-01 -7.048850e+00 255 255 0
-9.276034e-01 -1.718415e-01 -7.000569e+00 0 255 0
-9.306449e-01 -1.653441e-01 -7.050051e+00 255 255 0
-9.244995e-01 -1.772917e-01 -6.989690e+00 255 0 0
-9.298161e-01 -1.650403e-01 -7.037873e+00 255 255 0
-9.283962e-01 -1.735560e-01 -7.001884e+00 0 255 0
-9.286534e-01 -1.639006e-01 -7.050942e+00 255 255 0
