ply
format ascii 1.0
element face 0
property list uchar int vertex_indices
element vertex 193
property float x
property float y
property float z
property uchar diffuse_red
property uchar diffuse_green
property uchar diffuse_blue
end_header
-9.184808e-01 -1.508372e-01 -7.060713e+00 174 176 175
-9.290859e-01 -1.559001e-01 -7.042506e+00 30 31 52
-9.281158e-01 -1.581040e-01 -7.040667e+00 23 21 21
-9.240429e-01 -1.583338e-01 -7.043685e+00 26 27 30
-9.250827e-01 -1.624726e-01 -7.037800e+00 93 90 102
-9.235209e-01 -1.624899e-01 -7.039035e+00 95 93 105
-1.006117e+00 -2.238224e-01 -7.186045e+00 173 174 171
-9.375556e-01 -1.515916e-01 -7.044958e+00 64 64 74
-9.235051e-01 -1.625383e-01 -7.039165e+00 95 93 105
-9.287235e-01 -1.621704e-01 -7.034960e+00 96 92 107
-9.297603e-01 -1.619962e-01 -7.034178e+00 97 94 113
-9.190032e-01 -1.629643e-01 -7.043122e+00 90 89 105
-9.378704e-01 -1.544964e-01 -7.043043e+00 55 58 65
-9.377263e-01 -1.666260e-01 -7.037009e+00 50 56 63
-9.139794e-01 -1.706382e-01 -7.050394e+00 103 105 104
-9.353317e-01 -1.616755e-01 -7.032090e+00 39 48 51
-9.360433e-01 -1.691090e-01 -7.037257e+00 76 83 93
-9.298988e-01 -1.619814e-01 -7.035098e+00 97 94 113
-9.189196e-01 -1.629330e-01 -7.042754e+00 90 89 105
-9.400882e-01 -1.527505e-01 -7.041477e+00 66 68 73
-9.323567e-01 -1.641757e-01 -7.032996e+00 86 97 119
-9.268934e-01 -1.525703e-01 -7.050658e+00 76 73 87
-1.063239e+00 -4.708649e-02 -7.316867e+00 118 116 117
-9.174906e-01 -1.704743e-01 -7.049978e+00 88 94 100
-9.341461e-01 -1.692057e-01 -7.037962e+00 70 76 97
-9.368535e-01 -1.655589e-01 -7.032425e+00 88 93 97
-9.339223e-01 -1.752785e-01 -7.031874e+00 176 176 176
-9.138998e-01 -1.757486e-01 -7.049913e+00 171 173 170
-9.219748e-01 -1.537964e-01 -7.053051e+00 66 65 81
-1.064543e+00 -4.699535e-02 -7.332448e+00 124 122 123
-9.368833e-01 -1.696116e-01 -7.036085e+00 177 179 178
-9.258792e-01 -1.696271e-01 -7.043336e+00 75 86 108
-9.376203e-01 -1.684546e-01 -7.036080e+00 46 53 59
-9.371464e-01 -1.618216e-01 -7.033432e+00 151 160 163
-9.286300e-01 -1.525203e-01 -7.049011e+00 78 76 90
-9.258998e-01 -1.697275e-01 -7.043789e+00 73 84 106
-9.198497e-01 -1.702397e-01 -7.048086e+00 77 85 107
-9.375695e-01 -1.515386e-01 -7.043450e+00 65 65 75
-1.071704e+00 -3.934722e-02 -7.327339e+00 10 12 13
-9.374630e-01 -1.671254e-01 -7.033746e+00 90 96 102
-9.224904e-01 -1.612562e-01 -7.041193e+00 32 30 38
-9.286107e-01 -1.591049e-01 -7.039099e+00 83 82 104
-9.383735e-01 -1.585159e-01 -7.034806e+00 99 104 108
-9.413927e-01 -1.540624e-01 -7.039468e+00 86 90 93
-9.361385e-01 -1.646467e-01 -7.032266e+00 95 102 106
-9.355979e-01 -1.644413e-01 -7.030548e+00 95 102 106
-9.350064e-01 -1.628761e-01 -7.031253e+00 80 89 92
-9.256393e-01 -1.590880e-01 -7.040977e+00 65 63 66
-9.263882e-01 -1.589983e-01 -7.040314e+00 64 62 63
-9.250996e-01 -1.582176e-01 -7.042716e+00 65 65 67
-9.250957e-01 -1.581980e-01 -7.042640e+00 65 65 67
-9.271259e-01 -1.580550e-01 -7.041110e+00 66 64 65
-9.283037e-01 -1.570766e-01 -7.041358e+00 63 65 69
-9.275893e-01 -1.570849e-01 -7.041946e+00 68 71 74
-9.275807e-01 -1.570781e-01 -7.041917e+00 68 71 74
-9.357277e-01 -1.403172e-01 -7.050009e+00 183 183 183
-9.123745e-01 -1.760966e-01 -7.046567e+00 179 179 178
-9.482167e-01 -1.522594e-01 -7.051281e+00 121 123 122
-9.357293e-01 -1.530312e-01 -7.042281e+00 64 61 80
-9.361646e-01 -1.635525e-01 -7.031502e+00 47 54 60
-9.370260e-01 -1.620531e-01 -7.033039e+00 148 156 159
-9.361981e-01 -1.668604e-01 -7.030264e+00 112 120 125
-9.365577e-01 -1.668241e-01 -7.031487e+00 112 120 125
-9.351376e-01 -1.629529e-01 -7.031665e+00 91 100 103
-1.063017e+00 -1.784480e-01 -7.312671e+00 166 168 164
-1.080933e+00 -2.216413e-02 -7.355292e+00 49 50 50
-1.063455e+00 -2.768563e-02 -7.319553e+00 95 94 90
-1.063455e+00 -2.768563e-02 -7.319553e+00 95 94 90
-9.257469e-01 -1.560516e-01 -7.045247e+00 33 35 51
-9.362278e-01 -1.662091e-01 -7.034650e+00 48 54 60
-9.370064e-01 -1.616438e-01 -7.032938e+00 152 160 163
-9.294251e-01 -1.547308e-01 -7.045138e+00 92 88 105
-9.250962e-01 -1.624613e-01 -7.037737e+00 98 91 109
-9.294610e-01 -1.571454e-01 -7.039460e+00 80 82 108
-9.286030e-01 -1.621261e-01 -7.034332e+00 98 94 111
-9.360807e-01 -1.641771e-01 -7.033449e+00 154 159 163
-9.247058e-01 -1.573879e-01 -7.044355e+00 62 66 69
-9.404061e-01 -1.538782e-01 -7.038068e+00 138 144 148
-1.024669e+00 -1.602842e-01 -7.225605e+00 55 57 54
-9.359639e-01 -1.600754e-01 -7.032092e+00 43 51 54
-9.244612e-01 -1.700897e-01 -7.045846e+00 81 89 110
-9.190833e-01 -1.631193e-01 -7.043677e+00 93 90 109
-9.339968e-01 -1.690715e-01 -7.037586e+00 72 78 100
-9.216583e-01 -1.545869e-01 -7.050143e+00 68 65 82
-9.355994e-01 -1.643339e-01 -7.031459e+00 107 114 120
-9.355994e-01 -1.643339e-01 -7.031459e+00 107 114 120
-9.379538e-01 -1.617084e-01 -7.036780e+00 154 159 163
-1.383766e+00 -3.288022e-01 -7.813978e+00 77 77 77
-9.053417e-01 -1.673588e-01 -7.039484e+00 132 132 132
-9.406270e-01 -1.526179e-01 -7.044596e+00 66 73 76
-9.372849e-01 -1.619922e-01 -7.034394e+00 152 160 163
-9.374591e-01 -1.663949e-01 -7.034302e+00 106 113 119
-9.374591e-01 -1.663949e-01 -7.034302e+00 106 113 119
-9.384509e-01 -1.678299e-01 -7.035545e+00 131 135 138
-9.384509e-01 -1.678299e-01 -7.035545e+00 131 135 138
-9.372889e-01 -1.605478e-01 -7.036084e+00 94 101 107
-9.270355e-01 -1.576777e-01 -7.039410e+00 69 69 70
-9.415778e-01 -1.535029e-01 -7.041480e+00 135 139 142
-1.144596e+00 -2.204435e-01 -7.375593e+00 52 53 56
-9.254659e-01 -1.573609e-01 -7.044315e+00 66 67 72
-9.385367e-01 -1.555480e-01 -7.036498e+00 84 87 92
-9.380119e-01 -1.666587e-01 -7.038011e+00 48 55 61
-9.120360e-01 -1.482576e-01 -7.046130e+00 179 179 179
-9.105898e-01 -1.612971e-01 -7.025776e+00 132 132 132
-9.208739e-01 -1.616824e-01 -7.027437e+00 163 165 162
-9.300390e-01 -1.667017e-01 -7.030972e+00 177 179 178
-9.177929e-01 -1.695670e-01 -7.049636e+00 163 164 166
-9.394191e-01 -1.669073e-01 -7.037189e+00 67 78 82
-9.459277e-01 -1.540161e-01 -7.051156e+00 179 183 184
-9.453426e-01 -1.577363e-01 -7.050356e+00 77 84 90
-9.271726e-01 -1.540751e-01 -7.043247e+00 99 95 110
-9.335343e-01 -1.602613e-01 -7.021100e+00 59 65 67
-9.346213e-01 -1.521061e-01 -7.022663e+00 40 46 51
-9.420091e-01 -1.535423e-01 -7.039815e+00 79 85 88
-9.432801e-01 -1.535319e-01 -7.041036e+00 181 183 185
-9.321577e-01 -1.596310e-01 -7.020463e+00 128 133 136
-9.337365e-01 -1.582802e-01 -7.019181e+00 65 73 78
-9.350707e-01 -1.515988e-01 -7.023698e+00 41 45 49
-9.361306e-01 -1.497030e-01 -7.034322e+00 70 68 82
-9.370962e-01 -1.492999e-01 -7.029033e+00 85 86 89
-9.358083e-01 -1.633004e-01 -7.025992e+00 87 88 90
-9.317720e-01 -1.585984e-01 -7.019508e+00 56 61 65
-9.329599e-01 -1.563118e-01 -7.018548e+00 142 147 150
-9.253956e-01 -1.582611e-01 -7.040408e+00 22 20 21
-9.253956e-01 -1.582611e-01 -7.040408e+00 22 20 21
-9.269818e-01 -1.570096e-01 -7.036969e+00 66 66 68
-9.337903e-01 -1.539503e-01 -7.019585e+00 132 137 141
-9.243374e-01 -1.566133e-01 -7.043574e+00 30 28 39
-9.289685e-01 -1.571190e-01 -7.042382e+00 22 22 32
-9.372333e-01 -1.506176e-01 -7.025774e+00 128 138 140
-9.423634e-01 -1.657719e-01 -7.012350e+00 32 34 33
-9.423634e-01 -1.657719e-01 -7.012350e+00 32 34 33
-9.339659e-01 -1.555546e-01 -7.020395e+00 59 67 70
-9.345525e-01 -1.531058e-01 -7.021621e+00 119 124 129
-9.346819e-01 -1.524833e-01 -7.021604e+00 135 142 145
-9.357324e-01 -1.514382e-01 -7.024271e+00 150 155 159
-9.364085e-01 -1.511067e-01 -7.023782e+00 108 113 118
-9.328263e-01 -1.565631e-01 -7.019249e+00 49 57 60
-9.337387e-01 -1.545314e-01 -7.018920e+00 52 60 63
-9.366080e-01 -1.663836e-01 -7.041760e+00 38 46 49
-9.439315e-01 -1.677098e-01 -7.014704e+00 15 17 15
-9.255194e-01 -1.574753e-01 -7.042164e+00 21 22 24
-9.440187e-01 -1.685909e-01 -7.014742e+00 5 7 4
-9.323033e-01 -1.535516e-01 -7.014310e+00 136 143 148
-9.414366e-01 -1.588067e-01 -7.045969e+00 99 108 113
-9.384879e-01 -1.535452e-01 -7.007583e+00 108 110 107
-9.436985e-01 -1.680036e-01 -7.013642e+00 30 32 29
-9.366591e-01 -1.495553e-01 -7.003634e+00 3 5 2
-9.384435e-01 -1.685176e-01 -7.036212e+00 72 76 79
-9.364367e-01 -1.496373e-01 -7.003809e+00 49 51 48
-9.364367e-01 -1.496373e-01 -7.003809e+00 49 51 48
-9.182858e-01 -1.707611e-01 -7.044537e+00 165 167 166
-9.786805e-01 -2.584030e-01 -7.130648e+00 174 173 174
-1.042294e+00 -2.957280e-01 -7.258696e+00 35 34 32
-1.042294e+00 -2.957280e-01 -7.258696e+00 35 34 32
-9.198268e-01 -1.586937e-01 -6.980885e+00 0 255 0
-9.232221e-01 -1.640833e-01 -7.030478e+00 255 255 0
-9.213614e-01 -1.663440e-01 -6.981570e+00 255 0 0
-9.254264e-01 -1.631803e-01 -7.031304e+00 255 255 0
-9.220298e-01 -1.467021e-01 -6.980051e+00 0 255 0
-9.275545e-01 -1.584771e-01 -7.028330e+00 255 255 0
-9.210570e-01 -1.543423e-01 -6.983040e+00 255 0 0
-9.233731e-01 -1.706734e-01 -7.030241e+00 255 255 0
-9.213272e-01 -1.578874e-01 -6.982297e+00 0 255 0
-9.249482e-01 -1.667676e-01 -7.031368e+00 255 255 0
-9.218719e-01 -1.604494e-01 -6.981793e+00 255 0 0
-9.245960e-01 -1.636031e-01 -7.031619e+00 255 255 0
-9.216784e-01 -1.675176e-01 -6.979946e+00 0 255 0
-9.285291e-01 -1.767507e-01 -7.028606e+00 255 255 0
-9.224586e-01 -1.685999e-01 -6.980324e+00 255 0 0
-9.290039e-01 -1.709112e-01 -7.029839e+00 255 255 0
-9.226344e-01 -1.693481e-01 -6.980427e+00 0 255 0
-9.291134e-01 -1.671299e-01 -7.029956e+00 255 255 0
-9.226525e-01 -1.689539e-01 -6.980757e+00 255 0 0
-9.282034e-01 -1.623467e-01 -7.030006e+00 255 255 0
-9.267302e-01 -1.583285e-01 -6.991705e+00 0 255 0
-9.308185e-01 -1.668831e-01 -7.040798e+00 255 255 0
-9.274372e-01 -1.684138e-01 -6.992922e+00 255 0 0
-9.306541e-01 -1.683223e-01 -7.042819e+00 255 255 0
-9.259883e-01 -1.419493e-01 -6.984685e+00 0 255 0
-9.289985e-01 -1.641376e-01 -7.029391e+00 255 255 0
-9.258356e-01 -1.429106e-01 -6.984974e+00 255 0 0
-9.293639e-01 -1.621458e-01 -7.030991e+00 255 255 0
-9.258273e-01 -1.430823e-01 -6.984378e+00 0 255 0
-9.315211e-01 -1.592654e-01 -7.031343e+00 255 255 0
-9.261853e-01 -1.433173e-01 -6.984761e+00 255 0 0
-9.322193e-01 -1.557123e-01 -7.032823e+00 255 255 0
-9.227465e-01 -1.688083e-01 -6.980437e+00 0 255 0
-9.284370e-01 -1.593572e-01 -7.029205e+00 255 255 0
-9.323965e-01 -1.451307e-01 -6.995942e+00 255 0 0
-9.300325e-01 -1.689589e-01 -7.039836e+00 255 255 0
-9.294048e-01 -1.528418e-01 -6.991451e+00 0 255 0
-9.281991e-01 -1.682129e-01 -7.039014e+00 255 255 0
