ply
format ascii 1.0
element face 0
property list uchar int vertex_indices
element vertex 626
property float x
property float y
property float z
property uchar diffuse_red
property uchar diffuse_green
property uchar diffuse_blue
end_header
-9.289961e-01 -1.551698e-01 -7.044580e+00 30 31 52
-9.281362e-01 -1.572891e-01 -7.042769e+00 23 21 21
-9.244650e-01 -1.573218e-01 -7.045920e+00 26 27 30
-9.253743e-01 -1.612791e-01 -7.040301e+00 93 90 102
-9.239662e-01 -1.613425e-01 -7.041779e+00 95 93 105
-9.368212e-01 -1.512150e-01 -7.046779e+00 64 64 74
-9.238876e-01 -1.613064e-01 -7.041544e+00 95 93 105
-9.287473e-01 -1.609981e-01 -7.037793e+00 96 92 107
-9.296876e-01 -1.608306e-01 -7.037022e+00 97 94 113
-9.197091e-01 -1.618005e-01 -7.045727e+00 90 89 105
-9.371872e-01 -1.538613e-01 -7.045275e+00 55 58 65
-9.373732e-01 -1.653045e-01 -7.040681e+00 50 56 63
-9.151699e-01 -1.688283e-01 -7.051378e+00 103 105 104
-9.350059e-01 -1.605429e-01 -7.035772e+00 39 48 51
-9.355390e-01 -1.673885e-01 -7.039904e+00 76 83 93
-9.297866e-01 -1.607954e-01 -7.037624e+00 97 94 113
-9.196795e-01 -1.617483e-01 -7.044639e+00 90 89 105
-9.391032e-01 -1.523064e-01 -7.043386e+00 66 68 73
-9.321563e-01 -1.628161e-01 -7.036068e+00 86 97 119
-9.269688e-01 -1.522388e-01 -7.051652e+00 76 73 87
-1.064620e+00 -4.587439e-02 -7.324819e+00 118 116 117
-9.183724e-01 -1.686603e-01 -7.050718e+00 88 94 100
-9.337370e-01 -1.674900e-01 -7.040388e+00 70 76 97
-9.363360e-01 -1.641196e-01 -7.035620e+00 88 93 97
-9.333644e-01 -1.728462e-01 -7.034399e+00 176 176 176
-9.151793e-01 -1.734857e-01 -7.050790e+00 171 173 170
-9.223486e-01 -1.531811e-01 -7.057094e+00 66 65 81
-1.063423e+00 -4.726975e-02 -7.334972e+00 124 122 123
-9.365323e-01 -1.679255e-01 -7.039289e+00 177 179 178
-9.261364e-01 -1.678736e-01 -7.045215e+00 75 86 108
-9.370738e-01 -1.668178e-01 -7.038962e+00 46 53 59
-9.366514e-01 -1.606610e-01 -7.036739e+00 151 160 163
-9.285481e-01 -1.521777e-01 -7.050096e+00 78 76 90
-9.260759e-01 -1.679942e-01 -7.045621e+00 73 84 106
-9.205252e-01 -1.684539e-01 -7.049307e+00 77 85 107
-9.369167e-01 -1.511227e-01 -7.045808e+00 65 65 75
-1.070383e+00 -3.975752e-02 -7.329646e+00 10 12 13
-9.370178e-01 -1.656373e-01 -7.037169e+00 90 96 102
-9.229574e-01 -1.602298e-01 -7.043999e+00 32 30 38
-9.286127e-01 -1.581774e-01 -7.041586e+00 83 82 104
-9.377711e-01 -1.575665e-01 -7.038017e+00 99 104 108
-9.404827e-01 -1.534346e-01 -7.042157e+00 86 90 93
-9.357507e-01 -1.633139e-01 -7.035744e+00 95 102 106
-9.352799e-01 -1.631372e-01 -7.034244e+00 95 102 106
-9.346345e-01 -1.616533e-01 -7.034611e+00 80 89 92
-9.258919e-01 -1.581902e-01 -7.043465e+00 65 63 66
-9.265822e-01 -1.581376e-01 -7.042861e+00 64 62 63
-9.254028e-01 -1.573107e-01 -7.044904e+00 65 65 67
-9.254124e-01 -1.572777e-01 -7.044817e+00 65 65 67
-9.272456e-01 -1.572808e-01 -7.043641e+00 66 64 65
-9.283295e-01 -1.563511e-01 -7.043750e+00 63 65 69
-9.276553e-01 -1.563476e-01 -7.044267e+00 68 71 74
-9.276520e-01 -1.563484e-01 -7.044270e+00 68 71 74
-9.340451e-01 -1.421508e-01 -7.048638e+00 183 183 183
-9.467808e-01 -1.518173e-01 -7.052839e+00 121 123 122
-9.351665e-01 -1.525661e-01 -7.044301e+00 64 61 80
-9.357125e-01 -1.622337e-01 -7.034853e+00 47 54 60
-9.364513e-01 -1.608643e-01 -7.036078e+00 148 156 159
-9.357391e-01 -1.653235e-01 -7.033696e+00 112 120 125
-9.361666e-01 -1.652851e-01 -7.035163e+00 112 120 125
-9.347174e-01 -1.616871e-01 -7.034871e+00 91 100 103
-1.059772e+00 -1.771331e-01 -7.310345e+00 166 168 164
-1.079422e+00 -2.306462e-02 -7.357189e+00 49 50 50
-1.061940e+00 -2.859620e-02 -7.321278e+00 95 94 90
-1.061940e+00 -2.859620e-02 -7.321278e+00 95 94 90
-9.259831e-01 -1.551673e-01 -7.047116e+00 33 35 51
-9.357632e-01 -1.647170e-01 -7.037574e+00 48 54 60
-9.364763e-01 -1.604652e-01 -7.036053e+00 152 160 163
-9.293292e-01 -1.539516e-01 -7.046261e+00 92 88 105
-9.253682e-01 -1.612524e-01 -7.040302e+00 98 91 109
-9.294312e-01 -1.565163e-01 -7.042319e+00 80 82 108
-9.286385e-01 -1.609766e-01 -7.037370e+00 98 94 111
-9.356209e-01 -1.628237e-01 -7.036475e+00 154 159 163
-9.251260e-01 -1.563882e-01 -7.046143e+00 62 66 69
-9.395883e-01 -1.532587e-01 -7.040883e+00 138 144 148
-1.016042e+00 -1.594552e-01 -7.210519e+00 55 57 54
-9.354060e-01 -1.589817e-01 -7.034980e+00 43 51 54
-9.247661e-01 -1.682718e-01 -7.047232e+00 81 89 110
-9.197369e-01 -1.620449e-01 -7.046733e+00 93 90 109
-9.337041e-01 -1.674304e-01 -7.040393e+00 72 78 100
-9.221278e-01 -1.539781e-01 -7.051749e+00 68 65 82
-9.351731e-01 -1.629691e-01 -7.034774e+00 107 114 120
-9.351731e-01 -1.629691e-01 -7.034774e+00 107 114 120
-9.373242e-01 -1.605418e-01 -7.039508e+00 154 159 163
-9.057758e-01 -1.674239e-01 -7.045923e+00 132 132 132
-9.389630e-01 -1.518344e-01 -7.043379e+00 66 73 76
-9.366911e-01 -1.607400e-01 -7.037187e+00 152 160 163
-9.369226e-01 -1.648805e-01 -7.037240e+00 106 113 119
-9.369226e-01 -1.648805e-01 -7.037240e+00 106 113 119
-9.378517e-01 -1.662113e-01 -7.038375e+00 131 135 138
-9.378517e-01 -1.662113e-01 -7.038375e+00 131 135 138
-9.366709e-01 -1.593994e-01 -7.038716e+00 94 101 107
-9.272342e-01 -1.574538e-01 -7.043849e+00 69 69 70
-9.405278e-01 -1.529981e-01 -7.043257e+00 135 139 142
-1.139670e+00 -2.197176e-01 -7.372402e+00 52 53 56
-9.257599e-01 -1.563115e-01 -7.045779e+00 66 67 72
-9.378695e-01 -1.547892e-01 -7.039464e+00 84 87 92
-9.374397e-01 -1.651722e-01 -7.040808e+00 48 55 61
-9.046433e-01 -1.689848e-01 -7.049087e+00 132 132 132
-9.177875e-01 -1.700719e-01 -7.057446e+00 163 164 166
-9.382292e-01 -1.648459e-01 -7.038557e+00 67 78 82
-9.439209e-01 -1.531300e-01 -7.050045e+00 179 183 184
-9.273402e-01 -1.536373e-01 -7.047010e+00 99 95 110
-9.411451e-01 -1.531994e-01 -7.042433e+00 79 85 88
-9.367932e-01 -1.502968e-01 -7.042413e+00 70 68 82
-9.386401e-01 -1.504215e-01 -7.040494e+00 85 86 89
-9.272024e-01 -1.574808e-01 -7.044172e+00 66 66 68
-9.248122e-01 -1.553448e-01 -7.044098e+00 30 28 39
-9.289538e-01 -1.563091e-01 -7.044131e+00 22 22 32
-9.409301e-01 -1.640883e-01 -7.016363e+00 32 34 33
-9.409301e-01 -1.640883e-01 -7.016363e+00 32 34 33
-9.358638e-01 -1.648360e-01 -7.043587e+00 38 46 49
-9.419289e-01 -1.650999e-01 -7.017877e+00 15 17 15
-9.258408e-01 -1.565613e-01 -7.044240e+00 21 22 24
-9.421423e-01 -1.661132e-01 -7.018106e+00 5 7 4
-9.410102e-01 -1.586540e-01 -7.049818e+00 99 108 113
-9.367351e-01 -1.519299e-01 -7.010663e+00 108 110 107
-9.421843e-01 -1.661883e-01 -7.017616e+00 30 32 29
-9.346213e-01 -1.480430e-01 -7.006344e+00 3 5 2
-9.376186e-01 -1.672364e-01 -7.039276e+00 72 76 79
-9.344340e-01 -1.479923e-01 -7.006288e+00 49 51 48
-9.344340e-01 -1.479923e-01 -7.006288e+00 49 51 48
-9.187737e-01 -1.694093e-01 -7.047551e+00 165 167 166
-9.734362e-01 -2.473161e-01 -7.121723e+00 174 173 174
-1.041913e+00 -2.966326e-01 -7.263392e+00 35 34 32
-1.041913e+00 -2.966326e-01 -7.263392e+00 35 34 32
-9.403969e-01 -1.707846e-01 -7.041537e+00 179 179 177
-9.357306e-01 -1.495691e-01 -7.008676e+00 62 64 61
-9.389556e-01 -1.594067e-01 -7.015403e+00 71 71 68
-9.362493e-01 -1.507053e-01 -7.009612e+00 130 131 129
-9.374367e-01 -1.525967e-01 -7.011217e+00 28 29 26
-9.272603e-01 -1.589989e-01 -7.037783e+00 33 25 25
-1.008532e+00 -2.737844e-02 -7.230144e+00 73 76 75
-9.329448e-01 -1.671411e-01 -7.040829e+00 63 72 97
-9.315148e-01 -1.678488e-01 -7.041744e+00 79 83 102
-9.239164e-01 -1.614677e-01 -7.040747e+00 97 93 107
-9.344595e-01 -1.548494e-01 -7.009894e+00 5 5 3
-9.350897e-01 -1.562982e-01 -7.004226e+00 66 66 64
-9.358183e-01 -1.558126e-01 -7.004485e+00 8 10 7
-9.388303e-01 -1.659084e-01 -7.041252e+00 66 76 81
-9.391247e-01 -1.517546e-01 -7.009397e+00 7 9 6
-9.351254e-01 -1.561667e-01 -7.004840e+00 5 7 4
-9.367946e-01 -1.556141e-01 -7.005153e+00 81 83 80
-9.349936e-01 -1.563678e-01 -7.004644e+00 61 63 60
-9.337061e-01 -1.534247e-01 -7.009588e+00 57 64 77
-9.351917e-01 -1.565238e-01 -7.003064e+00 67 69 66
-9.367484e-01 -1.558716e-01 -7.004134e+00 8 10 7
-9.362338e-01 -1.561679e-01 -7.004439e+00 87 90 87
-9.366767e-01 -1.557920e-01 -7.004269e+00 79 81 77
-9.328266e-01 -1.543756e-01 -7.008665e+00 12 12 10
-9.332649e-01 -1.543310e-01 -7.008283e+00 41 41 39
-9.344802e-01 -1.540849e-01 -7.007874e+00 76 33 35
-9.357772e-01 -1.560657e-01 -7.005107e+00 52 53 50
-9.341063e-01 -1.557214e-01 -7.008137e+00 39 41 38
-9.348231e-01 -1.540651e-01 -7.008580e+00 72 42 46
-9.367427e-01 -1.499013e-01 -7.011271e+00 37 37 35
-9.356887e-01 -1.558430e-01 -7.005248e+00 0 1 0
-9.346594e-01 -1.554847e-01 -7.006408e+00 5 7 4
-9.369647e-01 -1.554535e-01 -7.005546e+00 83 85 83
-9.346921e-01 -1.542925e-01 -7.007644e+00 63 64 59
-9.357042e-01 -1.537625e-01 -7.010565e+00 52 52 52
-9.388397e-01 -1.529992e-01 -7.008219e+00 198 200 195
-9.352389e-01 -1.493152e-01 -7.012033e+00 110 109 106
-9.352389e-01 -1.493152e-01 -7.012033e+00 110 109 106
-9.247324e-01 -1.682796e-01 -7.045466e+00 76 84 103
-9.111449e-01 -1.482040e-01 -7.049586e+00 178 178 178
-9.478641e-01 -1.489022e-01 -7.024197e+00 81 83 80
-9.466409e-01 -1.527726e-01 -7.023233e+00 4 6 2
-9.243318e-01 -1.612984e-01 -7.041777e+00 96 91 104
-9.428851e-01 -1.493009e-01 -7.025271e+00 15 14 12
-9.449087e-01 -1.500932e-01 -7.024752e+00 136 138 135
-9.427441e-01 -1.489442e-01 -7.025251e+00 80 79 77
-9.417188e-01 -1.517862e-01 -7.023958e+00 84 84 76
-9.502180e-01 -1.504421e-01 -7.023970e+00 46 48 49
-9.493912e-01 -1.478820e-01 -7.023495e+00 42 44 41
-9.529083e-01 -1.481301e-01 -7.023464e+00 102 104 99
-9.257670e-01 -1.559683e-01 -7.045259e+00 60 59 65
-9.342269e-01 -1.614247e-01 -7.038036e+00 42 47 53
-9.352392e-01 -1.531136e-01 -7.042443e+00 66 65 81
-9.401937e-01 -1.625451e-01 -7.041089e+00 67 72 75
-9.335811e-01 -1.599629e-01 -7.035975e+00 90 93 98
-9.361646e-01 -1.581814e-01 -7.036774e+00 45 53 56
-9.360978e-01 -1.581432e-01 -7.036983e+00 45 53 56
-9.354431e-01 -1.646453e-01 -7.035788e+00 38 47 54
-9.364181e-01 -1.619076e-01 -7.037331e+00 47 54 60
-9.362782e-01 -1.616278e-01 -7.034730e+00 221 226 230
-9.363009e-01 -1.616145e-01 -7.034820e+00 221 226 230
-9.358774e-01 -1.651030e-01 -7.034522e+00 148 155 161
-9.353489e-01 -1.639053e-01 -7.034242e+00 163 170 177
-9.353524e-01 -1.638593e-01 -7.034376e+00 163 170 177
-9.316654e-01 -1.677032e-01 -7.042718e+00 72 78 103
-9.385343e-01 -1.654735e-01 -7.036931e+00 188 191 194
-9.380473e-01 -1.656233e-01 -7.034299e+00 102 106 109
-9.343345e-01 -1.627825e-01 -7.034530e+00 46 50 56
-1.085069e+00 4.136174e-02 -7.324995e+00 138 136 128
-1.074454e+00 4.202059e-02 -7.347995e+00 75 77 74
-9.390458e-01 -1.504226e-01 -7.010807e+00 83 85 82
-9.394580e-01 -1.547341e-01 -7.008285e+00 104 109 105
-9.405132e-01 -1.474669e-01 -7.010374e+00 3 4 0
-9.376306e-01 -1.545481e-01 -7.008270e+00 86 88 85
-9.363144e-01 -1.564521e-01 -7.004426e+00 88 90 87
-9.410552e-01 -1.493484e-01 -7.010159e+00 2 4 2
-9.407482e-01 -1.517624e-01 -7.009428e+00 134 134 132
-9.394782e-01 -1.510289e-01 -7.010825e+00 89 91 88
-9.407411e-01 -1.469361e-01 -7.010250e+00 107 109 105
-9.397266e-01 -1.534509e-01 -7.007965e+00 127 127 124
-9.407804e-01 -1.475909e-01 -7.010258e+00 5 5 0
-9.359216e-01 -1.459381e-01 -7.012594e+00 13 13 13
-9.310419e-01 -1.584614e-01 -7.005811e+00 11 12 11
-9.334552e-01 -1.546420e-01 -7.008788e+00 41 41 39
-9.401100e-01 -1.516002e-01 -7.009893e+00 131 132 130
-9.341043e-01 -1.555204e-01 -7.012210e+00 175 176 174
-9.396788e-01 -1.486797e-01 -7.011220e+00 7 7 5
-9.397834e-01 -1.474390e-01 -7.010623e+00 107 104 99
-9.350495e-01 -1.569799e-01 -7.002916e+00 56 58 57
-9.384239e-01 -1.518890e-01 -7.009264e+00 8 10 7
-9.401488e-01 -1.486912e-01 -7.008990e+00 101 101 101
-9.398233e-01 -1.539114e-01 -7.007951e+00 111 111 109
-9.395333e-01 -1.530794e-01 -7.008273e+00 60 60 58
-9.398961e-01 -1.518726e-01 -7.008928e+00 85 86 81
-9.413774e-01 -1.517532e-01 -7.009579e+00 98 92 74
-9.413618e-01 -1.495957e-01 -7.010266e+00 101 103 100
-9.413987e-01 -1.492711e-01 -7.010295e+00 108 109 110
-9.410463e-01 -1.470989e-01 -7.010466e+00 95 95 89
-9.950287e-01 2.539355e-02 -7.226590e+00 116 118 117
-9.900077e-01 1.203164e-02 -7.204456e+00 22 26 26
-9.913521e-01 2.423595e-03 -7.189594e+00 96 97 94
-9.838901e-01 8.689834e-04 -7.183973e+00 118 121 114
-1.013592e+00 3.195135e-02 -7.245908e+00 56 58 55
-9.323347e-01 -1.458407e-01 -7.002179e+00 6 5 1
-9.406003e-01 -1.485746e-01 -7.047373e+00 180 182 181
-9.346958e-01 -1.627619e-01 -7.033740e+00 163 171 173
-9.421006e-01 -1.610079e-01 -7.047409e+00 72 76 81
-9.378224e-01 -1.639696e-01 -7.038871e+00 56 61 65
-9.143408e-01 -1.628401e-01 -7.048924e+00 50 51 55
-9.281008e-01 -1.682227e-01 -7.044076e+00 84 87 106
-9.370929e-01 -1.661753e-01 -7.036844e+00 75 86 91
-9.366553e-01 -1.639354e-01 -7.036336e+00 131 135 140
-9.335502e-01 -1.618175e-01 -7.035695e+00 41 46 52
-9.360079e-01 -1.518437e-01 -7.045247e+00 75 75 87
-9.307504e-01 -1.678891e-01 -7.043141e+00 89 92 111
-1.083958e+00 3.435100e-02 -7.358311e+00 7 9 6
-1.080788e+00 3.963884e-02 -7.362389e+00 100 103 98
-1.077454e+00 -3.418190e-02 -7.351751e+00 114 114 116
-1.171003e+00 -3.342766e-01 -7.375735e+00 81 80 78
-1.006550e+00 1.523768e-02 -7.230770e+00 42 44 45
-1.007126e+00 1.683725e-02 -7.232984e+00 42 44 45
-9.371474e-01 -1.464620e-01 -7.010574e+00 1 3 0
-9.324201e-01 -1.554071e-01 -7.007974e+00 10 10 8
-9.326093e-01 -1.545770e-01 -7.008222e+00 10 11 8
-9.362931e-01 -1.559478e-01 -7.004347e+00 2 4 1
-9.367027e-01 -1.513949e-01 -7.010124e+00 28 30 27
-9.409988e-01 -1.524874e-01 -7.043178e+00 79 87 89
-9.348523e-01 -1.559582e-01 -7.002326e+00 4 6 4
-9.337704e-01 -1.546056e-01 -7.009372e+00 32 32 32
-9.356536e-01 -1.560038e-01 -7.004871e+00 3 5 3
-9.368041e-01 -1.510454e-01 -7.010696e+00 124 126 123
-9.466813e-01 -1.577440e-01 -7.039509e+00 47 46 43
-1.006762e+00 1.786213e-02 -7.228173e+00 28 30 29
-9.344045e-01 -1.476251e-01 -7.007372e+00 14 13 11
-9.338286e-01 -1.498305e-01 -7.006196e+00 41 41 39
-9.404898e-01 -1.550284e-01 -7.045297e+00 122 129 135
-9.347626e-01 -1.487029e-01 -7.006906e+00 61 63 60
-9.341607e-01 -1.480908e-01 -7.006975e+00 110 109 104
-9.972175e-01 1.564691e-02 -7.207419e+00 92 92 89
-9.259000e-01 -1.682692e-01 -7.046114e+00 75 79 102
-1.014309e+00 2.978615e-02 -7.246839e+00 6 7 9
-9.182991e-01 -1.684924e-01 -7.051236e+00 73 76 83
-9.384788e-01 -1.659411e-01 -7.038865e+00 50 58 61
-9.384788e-01 -1.659411e-01 -7.038865e+00 50 58 61
-9.200477e-01 -1.688139e-01 -7.049708e+00 73 73 91
-9.369657e-01 -1.663024e-01 -7.036372e+00 105 110 114
-9.208375e-01 -1.683777e-01 -7.048068e+00 69 76 91
-9.204036e-01 -1.683676e-01 -7.049463e+00 75 81 97
-9.282318e-01 -1.699835e-01 -7.046986e+00 181 183 182
-9.336038e-01 -1.597586e-01 -7.036544e+00 116 119 124
-9.390959e-01 -1.509776e-01 -7.042676e+00 178 180 179
-1.014076e+00 -2.111594e-02 -7.244144e+00 79 83 91
-9.916167e-01 3.654031e-03 -7.179804e+00 132 132 126
-9.985922e-01 3.519505e-03 -7.177500e+00 132 123 118
-1.001342e+00 3.064453e-03 -7.177399e+00 63 60 51
-9.831028e-01 7.024702e-03 -7.180707e+00 116 117 109
-9.830824e-01 6.934271e-03 -7.180602e+00 116 117 109
-1.000330e+00 4.061261e-03 -7.171409e+00 122 114 111
-9.879794e-01 7.989011e-03 -7.195946e+00 83 90 83
-1.013506e+00 1.130069e-02 -7.190012e+00 25 24 22
-9.992933e-01 7.640405e-03 -7.189608e+00 115 110 105
-9.915015e-01 3.753017e-03 -7.185880e+00 122 126 113
-9.935880e-01 4.335650e-03 -7.184989e+00 44 43 38
-1.003751e+00 3.226578e-03 -7.176661e+00 128 121 115
-1.003714e+00 4.052609e-03 -7.175274e+00 58 48 42
-1.003714e+00 4.052609e-03 -7.175274e+00 58 48 42
-9.982378e-01 3.517020e-03 -7.170182e+00 61 52 47
-9.815173e-01 7.707909e-03 -7.179854e+00 60 72 70
-9.815347e-01 7.751953e-03 -7.179896e+00 60 72 70
-9.955556e-01 5.824299e-03 -7.189449e+00 38 36 31
-1.012892e+00 7.619596e-03 -7.185057e+00 149 148 146
-1.009033e+00 6.687232e-03 -7.185275e+00 92 90 88
-1.004836e+00 3.853078e-03 -7.180582e+00 105 102 97
-1.006155e+00 4.255998e-03 -7.179831e+00 53 45 42
-9.906577e-01 4.908963e-03 -7.176490e+00 56 55 43
-9.864170e-01 6.138691e-03 -7.177620e+00 121 120 108
-9.469532e-01 -1.533640e-01 -7.064697e+00 71 75 76
-9.354487e-01 -1.635458e-01 -7.034682e+00 133 142 147
-9.350428e-01 -1.579633e-01 -7.037713e+00 117 118 122
-9.344822e-01 -1.614430e-01 -7.033548e+00 59 63 66
-9.464448e-01 -1.440475e-01 -7.031544e+00 33 33 33
-1.104191e+00 6.480584e-02 -7.383891e+00 83 84 79
-1.084955e+00 -2.778773e-03 -7.376839e+00 97 90 84
-1.084955e+00 -2.778773e-03 -7.376839e+00 97 90 84
-9.292341e-01 -1.681174e-01 -7.043991e+00 80 83 98
-1.066966e+00 -8.274719e-03 -7.333670e+00 19 19 17
-1.012803e+00 2.853566e-02 -7.243705e+00 15 16 17
-1.010450e+00 -2.323041e-02 -7.235832e+00 60 61 65
-1.037917e+00 4.590884e-02 -7.205563e+00 146 147 147
-1.032162e+00 4.120744e-02 -7.200824e+00 6 18 41
-1.033142e+00 4.502722e-02 -7.210858e+00 118 118 119
-1.032942e+00 4.442991e-02 -7.210276e+00 118 118 119
-9.994019e-01 5.982170e-03 -7.179668e+00 134 125 120
-1.003761e+00 3.285322e-03 -7.176722e+00 128 121 115
-9.835938e-01 2.729849e-03 -7.178771e+00 70 76 56
-1.021034e+00 3.337901e-02 -7.200826e+00 7 16 43
-9.967918e-01 3.766994e-03 -7.171484e+00 126 113 110
-9.886149e-01 8.346869e-03 -7.175996e+00 53 49 44
-1.009155e+00 2.504988e-02 -7.238103e+00 47 49 47
-1.013588e+00 1.527882e-02 -7.188225e+00 168 167 164
-1.011218e+00 3.788180e-02 -7.227614e+00 109 108 106
-9.847041e-01 -1.222951e-03 -7.183953e+00 34 40 37
-1.000145e+00 5.671361e-03 -7.173472e+00 125 115 111
-9.978517e-01 6.053561e-03 -7.182124e+00 126 122 117
-1.037171e+00 5.228166e-02 -7.218428e+00 130 133 132
-1.000820e+00 3.879390e-03 -7.174522e+00 131 120 116
-1.000567e+00 2.968724e-03 -7.173698e+00 131 120 116
-1.029867e+00 3.385628e-02 -7.195171e+00 4 14 39
-1.041620e+00 5.198412e-02 -7.207639e+00 37 40 44
-9.844820e-01 3.070143e-03 -7.173540e+00 77 74 65
-9.913920e-01 3.582965e-03 -7.170904e+00 91 77 70
-9.927853e-01 3.406815e-03 -7.167545e+00 139 128 125
-9.927971e-01 3.518306e-03 -7.167627e+00 139 128 125
-9.985147e-01 4.196116e-03 -7.166463e+00 140 129 123
-9.995153e-01 7.939703e-03 -7.166337e+00 56 51 46
-9.955073e-01 4.924034e-03 -7.166378e+00 133 123 115
-9.929429e-01 7.058772e-04 -7.167399e+00 72 57 52
-9.959033e-01 -1.578593e-03 -7.160717e+00 134 122 116
-9.918306e-01 4.967226e-03 -7.166256e+00 60 52 50
-9.366988e-01 -1.639887e-01 -7.036534e+00 93 100 104
-9.176367e-01 -1.631069e-01 -7.044939e+00 53 50 66
-9.342725e-01 -1.587300e-01 -7.057835e+00 69 72 95
-9.324161e-01 -1.621610e-01 -7.037211e+00 80 91 113
-9.391215e-01 -1.652914e-01 -7.040734e+00 63 67 71
-9.370029e-01 -1.662687e-01 -7.036247e+00 88 95 101
-9.357062e-01 -1.599423e-01 -7.036038e+00 127 134 138
-9.393400e-01 -1.650837e-01 -7.039771e+00 141 149 152
-9.254050e-01 -1.672625e-01 -7.048935e+00 58 59 77
-1.010053e+00 2.754222e-02 -7.238182e+00 10 11 13
-9.904960e-01 4.842389e-03 -7.185784e+00 79 85 64
-1.035911e+00 3.685836e-02 -7.193294e+00 19 20 24
-1.117996e+00 4.250152e-02 -7.458242e+00 51 51 51
-1.000753e+00 9.465742e-03 -7.194803e+00 9 10 6
-9.791149e-01 6.069194e-03 -7.181586e+00 54 57 57
-9.830933e-01 1.286880e-02 -7.181391e+00 128 129 125
-9.772994e-01 1.382748e-02 -7.179908e+00 20 20 22
-9.836192e-01 2.368405e-02 -7.185814e+00 28 28 28
-9.791742e-01 6.508041e-03 -7.177741e+00 130 125 122
-1.013158e+00 2.942493e-02 -7.244560e+00 11 12 11
-9.860238e-01 7.643755e-03 -7.197143e+00 97 100 93
-1.036161e+00 4.593350e-02 -7.211140e+00 43 45 44
-1.001543e+00 4.082630e-04 -7.170462e+00 125 115 109
-9.405745e-01 -1.692750e-01 -7.042152e+00 191 191 191
-9.998268e-01 7.957235e-03 -7.175593e+00 100 88 82
-1.030457e+00 5.713294e-02 -7.210384e+00 6 28 58
-1.038285e+00 5.073196e-02 -7.199307e+00 130 129 127
-9.729822e-01 9.236358e-03 -7.173656e+00 45 46 48
-9.905125e-01 1.703120e-02 -7.179170e+00 132 128 125
-9.946448e-01 3.686101e-02 -7.187207e+00 47 42 36
-9.882451e-01 5.442057e-03 -7.175971e+00 65 67 54
-9.884046e-01 5.750748e-03 -7.176271e+00 65 67 54
-9.878013e-01 5.987749e-03 -7.174780e+00 75 73 58
-9.806325e-01 2.380877e-02 -7.184946e+00 107 107 109
-9.906151e-01 2.340048e-02 -7.179406e+00 47 44 41
-1.001354e+00 1.869739e-03 -7.167424e+00 92 86 77
-1.048335e+00 5.464201e-02 -7.202126e+00 140 139 139
-1.041213e+00 5.091319e-02 -7.191757e+00 117 118 117
-9.782936e-01 2.559507e-02 -7.186196e+00 33 34 36
-1.048296e+00 4.599367e-02 -7.187037e+00 119 119 117
-1.048296e+00 4.599367e-02 -7.187037e+00 119 119 117
-9.801409e-01 1.057708e-02 -7.185675e+00 46 52 52
-9.966421e-01 1.127349e-01 -7.227646e+00 43 50 68
-9.995364e-01 7.111943e-03 -7.168776e+00 133 127 122
-1.049230e+00 5.009035e-02 -7.187213e+00 120 118 119
-1.052069e+00 5.759260e-02 -7.190247e+00 8 8 8
-1.053197e+00 6.010613e-02 -7.192228e+00 8 8 8
-1.010931e+00 1.537066e-01 -7.264575e+00 96 98 99
-9.824819e-01 1.440091e-02 -7.179681e+00 109 107 108
-9.972974e-01 5.872866e-03 -7.164992e+00 124 116 113
-9.946061e-01 1.548454e-02 -7.170993e+00 124 116 114
-9.823094e-01 6.864630e-02 -7.191530e+00 76 81 86
-1.049821e+00 2.892182e-02 -7.190902e+00 6 6 6
-9.273623e-01 -1.690949e-01 -7.047755e+00 174 175 177
-9.333441e-01 -1.654158e-01 -7.038096e+00 82 91 120
-9.384701e-01 -1.499776e-01 -7.043510e+00 177 177 177
-9.971585e-01 2.886163e-02 -7.227206e+00 19 21 18
-1.027384e+00 4.219920e-02 -7.212837e+00 1 1 2
-9.946920e-01 -1.174855e-03 -7.158284e+00 120 119 114
-9.893043e-01 1.689581e-02 -7.208702e+00 21 23 22
-1.004927e+00 3.569922e-03 -7.180432e+00 109 100 95
-1.021070e+00 4.591218e-02 -7.192091e+00 18 31 56
-9.749066e-01 2.428559e-02 -7.183509e+00 80 81 83
-9.203181e-01 -1.687670e-01 -7.049583e+00 58 57 73
-9.791814e-01 1.211868e-02 -7.181973e+00 102 103 105
-9.908675e-01 6.756980e-03 -7.168062e+00 120 112 110
-1.035981e+00 4.328969e-02 -7.184786e+00 7 7 7
-9.958929e-01 6.346898e-04 -7.168883e+00 119 109 102
-9.380449e-01 -1.519066e-01 -7.043816e+00 68 70 73
-9.406249e-01 -1.629345e-01 -7.042585e+00 72 75 78
-9.140590e-01 -1.732684e-01 -7.045001e+00 174 174 174
-9.345464e-01 -1.675165e-01 -7.038079e+00 83 91 114
-9.325970e-01 -1.633662e-01 -7.034096e+00 57 57 69
-9.924687e-01 7.461645e-03 -7.168347e+00 60 52 50
-9.897531e-01 2.016176e-03 -7.173905e+00 60 56 45
-1.002880e+00 6.151538e-03 -7.182945e+00 116 109 103
-9.940237e-01 -3.898363e-02 -7.154494e+00 169 169 169
-9.940237e-01 -3.898363e-02 -7.154494e+00 169 169 169
-9.746003e-01 6.192168e-02 -7.182032e+00 107 107 114
-9.842504e-01 9.788423e-02 -7.192209e+00 51 62 84
-9.866006e-01 8.723543e-02 -7.183974e+00 0 9 21
-9.836996e-01 8.888422e-02 -7.181405e+00 2 13 41
-9.801780e-01 9.760751e-02 -7.185853e+00 2 15 34
-9.733190e-01 5.345616e-02 -7.180213e+00 114 115 119
-9.819221e-01 9.292363e-02 -7.181270e+00 60 72 112
-9.819159e-01 9.274935e-02 -7.181223e+00 60 72 112
-9.925114e-01 1.313405e-03 -7.170269e+00 119 114 104
-9.897376e-01 2.820935e-03 -7.164795e+00 120 112 110
-9.502602e-01 2.669499e-02 -7.133500e+00 13 13 11
-9.918254e-01 4.341593e-03 -7.180521e+00 133 133 119
-9.788354e-01 8.775538e-02 -7.175453e+00 63 73 110
-9.478345e-01 3.087191e-02 -7.128746e+00 109 107 108
-1.020627e+00 6.344053e-02 -7.244220e+00 3 1 1
-9.698968e-01 4.940497e-02 -7.178435e+00 18 19 23
-9.544492e-01 3.390013e-02 -7.144044e+00 114 116 113
-9.903143e-01 -1.357378e-03 -7.183815e+00 12 17 11
-9.489326e-01 2.880206e-02 -7.127859e+00 110 108 109
-9.489326e-01 2.880206e-02 -7.127859e+00 110 108 109
-9.727742e-01 4.552208e-02 -7.175097e+00 119 119 127
-9.757894e-01 9.144758e-02 -7.178237e+00 1 10 36
-9.896882e-01 9.834374e-03 -7.197545e+00 86 93 84
-9.228101e-01 -1.633096e-01 -7.036408e+00 168 170 169
-9.825738e-01 1.099177e-02 -7.179828e+00 118 119 114
-9.424990e-01 6.158604e-02 -7.126638e+00 109 107 108
-9.793918e-01 2.679880e-02 -7.190289e+00 29 30 32
-9.472974e-01 6.217411e-02 -7.133417e+00 98 98 98
-9.388624e-01 -1.685876e-01 -7.035064e+00 140 148 150
-9.352785e-01 -1.645769e-01 -7.033489e+00 103 110 114
-9.477781e-01 2.250313e-02 -7.124600e+00 110 110 110
-9.434867e-01 7.176189e-02 -7.126473e+00 58 56 51
-9.841863e-01 1.016753e-01 -7.174965e+00 67 80 118
-9.234623e-01 -1.709632e-01 -7.038130e+00 51 62 74
-9.234623e-01 -1.709632e-01 -7.038130e+00 51 62 74
-9.358729e-01 -1.656447e-01 -7.036195e+00 27 34 38
-9.148881e-01 -1.749400e-01 -7.042653e+00 153 155 152
-9.779402e-01 1.597556e-02 -7.165481e+00 106 106 108
-9.582720e-01 7.156600e-02 -7.145314e+00 84 84 84
-9.413023e-01 -1.676402e-01 -7.034538e+00 72 77 81
-9.393250e-01 -1.620874e-01 -7.034319e+00 70 76 85
-9.823076e-01 9.678952e-03 -7.178628e+00 104 106 103
-9.911092e-01 1.912320e-02 -7.181364e+00 109 106 102
-9.330533e-01 -1.669969e-01 -7.030211e+00 47 50 58
-9.633568e-01 6.286194e-02 -7.142651e+00 95 95 97
-9.428329e-01 3.540300e-02 -7.118704e+00 23 21 22
-9.776085e-01 8.256180e-02 -7.187347e+00 16 20 26
-9.578139e-01 2.447778e-02 -7.135928e+00 105 105 107
-9.389188e-01 -1.687251e-01 -7.034881e+00 98 105 108
-9.748331e-01 9.644982e-02 -7.169859e+00 6 6 10
-9.715673e-01 8.250386e-02 -7.162524e+00 81 86 89
-1.014346e+00 3.662855e-02 -7.250222e+00 52 54 53
-1.014346e+00 3.662855e-02 -7.250222e+00 52 54 53
-9.482003e-01 5.440329e-02 -7.124101e+00 92 89 88
-9.861223e-01 6.958336e-02 -7.165422e+00 69 74 80
-9.589275e-01 8.887434e-02 -7.146809e+00 96 96 98
-9.979585e-01 4.163725e-02 -7.189370e+00 30 28 24
-9.795191e-01 1.528285e-02 -7.184770e+00 95 99 102
-1.002014e+00 6.500778e-03 -7.180231e+00 52 46 43
-9.470353e-01 5.061748e-02 -7.125769e+00 98 96 97
-1.024810e+00 3.693845e-02 -7.205031e+00 106 107 110
-1.044292e+00 4.198779e-02 -7.189534e+00 131 130 128
-9.894735e-01 1.225855e-01 -7.211657e+00 43 56 85
-9.746666e-01 1.136521e-01 -7.188416e+00 30 41 64
-9.559818e-01 3.240252e-02 -7.145345e+00 113 114 118
-9.452595e-01 2.125880e-02 -7.132344e+00 122 120 123
-9.361339e-01 -1.661707e-01 -7.035196e+00 27 34 38
-9.687028e-01 1.270438e-01 -7.199697e+00 95 96 100
-9.790170e-01 1.159329e-01 -7.185708e+00 52 64 91
-9.928400e-01 9.956031e-03 -7.166505e+00 101 96 92
-9.413316e-01 -1.644458e-01 -7.038246e+00 70 75 78
-9.099662e-01 -1.661428e-01 -7.035542e+00 108 108 108
-9.368882e-01 -1.620614e-01 -7.051564e+00 163 163 163
-9.234371e-01 -1.587875e-01 -7.062590e+00 152 153 155
-9.412592e-01 -1.611664e-01 -7.046100e+00 163 164 166
-9.336134e-01 -1.644928e-01 -7.033027e+00 43 48 52
-9.307242e-01 -1.652819e-01 -7.047195e+00 60 61 66
-9.337024e-01 -1.640356e-01 -7.032369e+00 36 41 42
-9.326981e-01 -1.632236e-01 -7.031974e+00 157 159 158
-9.177147e-01 -1.652905e-01 -7.042181e+00 46 51 55
-9.355990e-01 -1.651466e-01 -7.030765e+00 58 62 63
-9.350601e-01 -1.652324e-01 -7.031541e+00 153 158 161
-9.350601e-01 -1.652324e-01 -7.031541e+00 153 158 161
-9.369636e-01 -1.681846e-01 -7.034257e+00 117 125 127
-9.356779e-01 -1.661170e-01 -7.032468e+00 134 141 147
-1.038319e+00 5.077473e-02 -7.193813e+00 130 128 130
-9.733716e-01 5.041539e-02 -7.182688e+00 110 109 115
-1.003191e+00 4.224261e-03 -7.183827e+00 93 83 81
-1.023692e+00 3.031212e-02 -7.190790e+00 34 49 73
-9.365063e-01 -1.664270e-01 -7.035238e+00 119 125 128
-9.365063e-01 -1.664270e-01 -7.035238e+00 119 125 128
-9.353625e-01 -1.640960e-01 -7.033979e+00 103 110 114
-9.671186e-01 4.631370e-03 -7.165299e+00 48 49 51
-9.671186e-01 4.631370e-03 -7.165299e+00 48 49 51
-9.407543e-01 6.208585e-02 -7.119819e+00 72 70 71
-9.128751e-01 -3.130108e-02 -7.042284e+00 182 180 181
-9.236772e-01 -1.619491e-01 -7.033804e+00 156 158 155
-9.386454e-01 -1.644088e-01 -7.043104e+00 88 89 94
-9.388711e-01 -1.660817e-01 -7.038058e+00 51 55 58
-9.404878e-01 -1.647342e-01 -7.042092e+00 86 87 89
-9.508517e-01 1.974418e-02 -7.105242e+00 99 99 99
-9.770436e-01 6.838194e-02 -7.163823e+00 48 61 94
-9.740052e-01 8.266323e-02 -7.163161e+00 0 2 7
-9.474649e-01 3.694587e-02 -7.121374e+00 81 79 80
-9.808645e-01 7.072451e-02 -7.193050e+00 84 88 91
-9.204135e-01 -1.577487e-01 -6.987814e+00 0 255 0
-9.239126e-01 -1.632060e-01 -7.037392e+00 255 255 0
-9.218818e-01 -1.646930e-01 -6.988340e+00 255 0 0
-9.259789e-01 -1.616871e-01 -7.038081e+00 255 255 0
-9.224719e-01 -1.464549e-01 -6.986905e+00 0 255 0
-9.280564e-01 -1.584228e-01 -7.035129e+00 255 255 0
-9.217180e-01 -1.535984e-01 -6.989704e+00 255 0 0
-9.240207e-01 -1.700895e-01 -7.036850e+00 255 255 0
-9.222804e-01 -1.572097e-01 -6.989056e+00 0 255 0
-9.255948e-01 -1.659809e-01 -7.038169e+00 255 255 0
-9.222655e-01 -1.593349e-01 -6.988523e+00 255 0 0
-9.251058e-01 -1.625878e-01 -7.038336e+00 255 255 0
-9.223479e-01 -1.661239e-01 -6.986852e+00 0 255 0
-9.290906e-01 -1.751926e-01 -7.035558e+00 255 255 0
-9.228934e-01 -1.668728e-01 -6.987047e+00 255 0 0
-9.294457e-01 -1.692462e-01 -7.036559e+00 255 255 0
-9.229988e-01 -1.675853e-01 -6.987050e+00 0 255 0
-9.295150e-01 -1.654339e-01 -7.036577e+00 255 255 0
-9.230595e-01 -1.672182e-01 -6.987466e+00 255 0 0
-9.286353e-01 -1.606617e-01 -7.036720e+00 255 255 0
-9.268257e-01 -1.572326e-01 -6.997626e+00 0 255 0
-9.310129e-01 -1.660180e-01 -7.046669e+00 255 255 0
-9.274872e-01 -1.667435e-01 -6.998398e+00 255 0 0
-9.307002e-01 -1.667505e-01 -7.048295e+00 255 255 0
-9.262509e-01 -1.443608e-01 -6.991129e+00 0 255 0
-9.293810e-01 -1.648259e-01 -7.036641e+00 255 255 0
-9.263166e-01 -1.432171e-01 -6.991393e+00 255 0 0
-9.295931e-01 -1.623834e-01 -7.037457e+00 255 255 0
-9.263330e-01 -1.425397e-01 -6.991690e+00 0 255 0
-9.317629e-01 -1.596161e-01 -7.038369e+00 255 255 0
-9.265322e-01 -1.427551e-01 -6.991776e+00 255 0 0
-9.324831e-01 -1.560048e-01 -7.039620e+00 255 255 0
-9.231329e-01 -1.671258e-01 -6.987169e+00 0 255 0
-9.288636e-01 -1.576909e-01 -7.035936e+00 255 255 0
-9.320774e-01 -1.453070e-01 -7.001675e+00 255 0 0
-9.296255e-01 -1.691610e-01 -7.045549e+00 255 255 0
-9.293969e-01 -1.520046e-01 -6.997324e+00 0 255 0
-9.282048e-01 -1.677247e-01 -7.044773e+00 255 255 0
-9.271259e-01 -1.399217e-01 -6.991263e+00 255 0 0
-9.287410e-01 -1.607206e-01 -7.036703e+00 255 255 0
-9.277160e-01 -1.884568e-01 -7.092188e+00 0 255 0
-9.238123e-01 -2.125960e-01 -7.135801e+00 255 255 0
-9.267272e-01 -1.226819e-01 -6.996914e+00 255 0 0
-9.327770e-01 -1.544831e-01 -7.035021e+00 255 255 0
-9.266599e-01 -1.529523e-01 -6.993430e+00 0 255 0
-9.306260e-01 -1.592524e-01 -7.042873e+00 255 255 0
-9.241866e-01 -1.718653e-01 -6.990591e+00 255 0 0
-9.281560e-01 -1.619096e-01 -7.039429e+00 255 255 0
-9.241056e-01 -1.743562e-01 -6.989872e+00 0 255 0
-9.294080e-01 -1.656686e-01 -7.038826e+00 255 255 0
-9.281609e-01 -1.703642e-01 -7.000035e+00 255 0 0
-9.304375e-01 -1.645128e-01 -7.049639e+00 255 255 0
-9.278968e-01 -1.718774e-01 -7.001177e+00 0 255 0
-9.308778e-01 -1.654124e-01 -7.050668e+00 255 255 0
-9.247953e-01 -1.775103e-01 -6.989952e+00 255 0 0
-9.299664e-01 -1.652234e-01 -7.038142e+00 255 255 0
-9.287216e-01 -1.736968e-01 -7.002476e+00 0 255 0
-9.288749e-01 -1.640001e-01 -7.051526e+00 255 255 0
-9.273909e-01 -1.794786e-01 -6.994662e+00 255 0 0
-9.314940e-01 -1.670334e-01 -7.042914e+00 255 255 0
-9.316222e-01 -1.591923e-01 -7.007446e+00 0 255 0
-9.278909e-01 -1.650795e-01 -7.056958e+00 255 255 0
-9.318275e-01 -1.455999e-01 -7.001625e+00 255 0 0
-9.263681e-01 -1.719742e-01 -7.043751e+00 255 255 0
-9.294810e-01 -1.769786e-01 -7.002767e+00 0 255 0
-9.295171e-01 -1.625345e-01 -7.050635e+00 255 255 0
-9.294517e-01 -1.789296e-01 -7.003276e+00 255 0 0
-9.301213e-01 -1.627955e-01 -7.050596e+00 255 255 0
-9.290367e-01 -1.827117e-01 -6.996896e+00 0 255 0
-9.322218e-01 -1.644272e-01 -7.043324e+00 255 255 0
-9.320353e-01 -1.863197e-01 -7.001480e+00 255 0 0
-9.335219e-01 -1.643001e-01 -7.046346e+00 255 255 0
-9.314005e-01 -1.832637e-01 -7.003610e+00 0 255 0
-9.301388e-01 -1.660722e-01 -7.050545e+00 255 255 0
-9.326688e-01 -1.878736e-01 -7.004079e+00 255 0 0
-9.304083e-01 -1.668842e-01 -7.049404e+00 255 255 0
-9.335991e-01 -1.891338e-01 -7.005549e+00 0 255 0
-9.318215e-01 -1.628965e-01 -7.048075e+00 255 255 0
-9.359680e-01 -1.943279e-01 -7.007351e+00 255 0 0
-9.324672e-01 -1.654218e-01 -7.047998e+00 255 255 0
-9.328804e-01 -1.861669e-01 -7.005938e+00 0 255 0
-9.322493e-01 -1.603189e-01 -7.048734e+00 255 255 0
-9.384796e-01 -2.017042e-01 -6.992983e+00 255 0 0
-9.245243e-01 -1.751571e-01 -7.032989e+00 255 255 0
-9.412038e-01 -2.037422e-01 -6.994609e+00 0 255 0
-9.264692e-01 -1.745134e-01 -7.032405e+00 255 255 0
-9.502823e-01 -2.018606e-01 -7.003084e+00 255 0 0
-9.315755e-01 -1.680340e-01 -7.034798e+00 255 255 0
-9.434992e-01 -2.057595e-01 -6.996821e+00 0 255 0
-9.265492e-01 -1.745607e-01 -7.032025e+00 255 255 0
-9.478575e-01 -2.068083e-01 -7.001102e+00 255 0 0
-9.291829e-01 -1.742111e-01 -7.034097e+00 255 255 0
-9.329435e-01 -1.949587e-01 -7.009899e+00 0 255 0
-9.255762e-01 -1.616841e-01 -7.046485e+00 255 255 0
-9.475006e-01 -1.960314e-01 -7.013645e+00 255 0 0
-9.255993e-01 -1.624706e-01 -7.043545e+00 255 255 0
-9.591652e-01 -2.128451e-01 -7.009627e+00 0 255 0
-9.345545e-01 -1.749883e-01 -7.031101e+00 255 255 0
