ply
format ascii 1.0
element face 0
property list uchar int vertex_indices
element vertex 344
property float x
property float y
property float z
property uchar diffuse_red
property uchar diffuse_green
property uchar diffuse_blue
end_header
-9.287663e-01 -1.552244e-01 -7.043677e+00 30 31 52
-9.279065e-01 -1.573423e-01 -7.041862e+00 23 21 21
-9.242353e-01 -1.573691e-01 -7.044993e+00 26 27 30
-9.251473e-01 -1.613138e-01 -7.039347e+00 93 90 102
-9.237383e-01 -1.613724e-01 -7.040798e+00 95 93 105
-9.365976e-01 -1.512601e-01 -7.045977e+00 64 64 74
-9.236744e-01 -1.613409e-01 -7.040586e+00 95 93 105
-9.285095e-01 -1.610330e-01 -7.036865e+00 96 92 107
-9.294483e-01 -1.608685e-01 -7.036117e+00 97 94 113
-9.195074e-01 -1.618287e-01 -7.044706e+00 90 89 105
-9.369240e-01 -1.539267e-01 -7.044277e+00 55 58 65
-9.371227e-01 -1.653259e-01 -7.039764e+00 50 56 63
-9.149935e-01 -1.688268e-01 -7.050279e+00 103 105 104
-9.347312e-01 -1.605773e-01 -7.034856e+00 39 48 51
-9.352070e-01 -1.673724e-01 -7.038630e+00 76 83 93
-9.295374e-01 -1.608283e-01 -7.036704e+00 97 94 113
-9.194673e-01 -1.617764e-01 -7.043624e+00 90 89 105
-9.388399e-01 -1.523669e-01 -7.042474e+00 66 68 73
-9.318513e-01 -1.628642e-01 -7.034945e+00 86 97 119
-9.267433e-01 -1.522908e-01 -7.050673e+00 76 73 87
-1.063107e+00 -4.697795e-02 -7.320243e+00 118 116 117
-9.182231e-01 -1.686480e-01 -7.049661e+00 88 94 100
-9.334351e-01 -1.674975e-01 -7.039259e+00 70 76 97
-9.360517e-01 -1.641469e-01 -7.034639e+00 88 93 97
-9.331871e-01 -1.729278e-01 -7.033650e+00 176 176 176
-9.150509e-01 -1.733830e-01 -7.049314e+00 171 173 170
-9.222766e-01 -1.532725e-01 -7.053861e+00 66 65 81
-1.063696e+00 -4.697718e-02 -7.334501e+00 124 122 123
-9.361329e-01 -1.678992e-01 -7.037939e+00 177 179 178
-9.259078e-01 -1.678861e-01 -7.044200e+00 75 86 108
-9.367990e-01 -1.668378e-01 -7.037954e+00 46 53 59
-9.363965e-01 -1.607016e-01 -7.035833e+00 151 160 163
-9.283221e-01 -1.522338e-01 -7.049154e+00 78 76 90
-9.258474e-01 -1.679955e-01 -7.044527e+00 73 84 106
-9.203421e-01 -1.684432e-01 -7.048174e+00 77 85 107
-9.366425e-01 -1.511939e-01 -7.044761e+00 65 65 75
-1.070670e+00 -3.944057e-02 -7.329229e+00 10 12 13
-9.367117e-01 -1.656452e-01 -7.036097e+00 90 96 102
-9.227399e-01 -1.602588e-01 -7.042995e+00 32 30 38
-9.283713e-01 -1.582211e-01 -7.040612e+00 83 82 104
-9.375312e-01 -1.576094e-01 -7.037151e+00 99 104 108
-9.402792e-01 -1.534900e-01 -7.041349e+00 86 90 93
-9.354636e-01 -1.633367e-01 -7.034735e+00 95 102 106
-9.350508e-01 -1.631770e-01 -7.033452e+00 95 102 106
-9.344395e-01 -1.617006e-01 -7.033938e+00 80 89 92
-9.256599e-01 -1.582378e-01 -7.042544e+00 65 63 66
-9.263498e-01 -1.581887e-01 -7.041954e+00 64 62 63
-9.251701e-01 -1.573742e-01 -7.044024e+00 65 65 67
-9.251775e-01 -1.573459e-01 -7.043949e+00 65 65 67
-9.270155e-01 -1.573373e-01 -7.042727e+00 66 64 65
-9.280994e-01 -1.564061e-01 -7.042884e+00 63 65 69
-9.274247e-01 -1.564122e-01 -7.043398e+00 68 71 74
-9.274215e-01 -1.564148e-01 -7.043404e+00 68 71 74
-9.340963e-01 -1.413258e-01 -7.049575e+00 183 183 183
-9.129333e-01 -1.741412e-01 -7.049161e+00 179 179 178
-9.465543e-01 -1.518393e-01 -7.051994e+00 121 123 122
-9.349276e-01 -1.526072e-01 -7.043421e+00 64 61 80
-9.353529e-01 -1.623011e-01 -7.033587e+00 47 54 60
-9.361298e-01 -1.609243e-01 -7.034948e+00 148 156 159
-9.353624e-01 -1.653624e-01 -7.032381e+00 112 120 125
-9.357502e-01 -1.653233e-01 -7.033705e+00 112 120 125
-9.343912e-01 -1.617496e-01 -7.033696e+00 91 100 103
-1.060716e+00 -1.770595e-01 -7.310887e+00 166 168 164
-1.079777e+00 -2.272144e-02 -7.356746e+00 49 50 50
-1.062241e+00 -2.822951e-02 -7.320925e+00 95 94 90
-1.062241e+00 -2.822951e-02 -7.320925e+00 95 94 90
-9.257477e-01 -1.552144e-01 -7.046229e+00 33 35 51
-9.355086e-01 -1.647565e-01 -7.036653e+00 48 54 60
-9.362133e-01 -1.604884e-01 -7.035132e+00 152 160 163
-9.290978e-01 -1.540117e-01 -7.045445e+00 92 88 105
-9.251470e-01 -1.612865e-01 -7.039341e+00 98 91 109
-9.292016e-01 -1.565783e-01 -7.041458e+00 80 82 108
-9.284159e-01 -1.610173e-01 -7.036447e+00 98 94 111
-9.353580e-01 -1.628489e-01 -7.035540e+00 154 159 163
-9.248907e-01 -1.564351e-01 -7.045239e+00 62 66 69
-9.392987e-01 -1.533052e-01 -7.039865e+00 138 144 148
-1.017984e+00 -1.596780e-01 -7.214111e+00 55 57 54
-9.351914e-01 -1.590380e-01 -7.034245e+00 43 51 54
-9.245452e-01 -1.682734e-01 -7.046113e+00 81 89 110
-9.195419e-01 -1.620889e-01 -7.045784e+00 93 90 109
-9.334294e-01 -1.674344e-01 -7.039343e+00 72 78 100
-9.219149e-01 -1.539424e-01 -7.051207e+00 68 65 82
-9.348278e-01 -1.630242e-01 -7.033545e+00 107 114 120
-9.348278e-01 -1.630242e-01 -7.033545e+00 107 114 120
-9.370467e-01 -1.605759e-01 -7.038579e+00 154 159 163
-9.056443e-01 -1.674438e-01 -7.044902e+00 132 132 132
-9.389448e-01 -1.519373e-01 -7.043402e+00 66 73 76
-9.364452e-01 -1.607819e-01 -7.036325e+00 152 160 163
-9.367290e-01 -1.650101e-01 -7.036576e+00 106 113 119
-9.367290e-01 -1.650101e-01 -7.036576e+00 106 113 119
-9.376907e-01 -1.663896e-01 -7.037794e+00 131 135 138
-9.376907e-01 -1.663896e-01 -7.037794e+00 131 135 138
-9.364297e-01 -1.594474e-01 -7.037861e+00 94 101 107
-9.270032e-01 -1.575183e-01 -7.042955e+00 69 69 70
-9.406229e-01 -1.531450e-01 -7.043576e+00 135 139 142
-1.141633e+00 -2.221969e-01 -7.371857e+00 52 53 56
-9.255261e-01 -1.563619e-01 -7.044901e+00 66 67 72
-9.376184e-01 -1.548245e-01 -7.038552e+00 84 87 92
-9.371655e-01 -1.651966e-01 -7.039748e+00 48 55 61
-9.048453e-01 -1.685941e-01 -7.047187e+00 132 132 132
-9.176830e-01 -1.697719e-01 -7.055865e+00 163 164 166
-9.377895e-01 -1.643586e-01 -7.036610e+00 67 78 82
-9.427333e-01 -1.525625e-01 -7.045731e+00 179 183 184
-9.270999e-01 -1.536901e-01 -7.046186e+00 99 95 110
-9.409205e-01 -1.532511e-01 -7.041455e+00 79 85 88
-9.365714e-01 -1.503526e-01 -7.041726e+00 70 68 82
-9.385015e-01 -1.505265e-01 -7.040103e+00 85 86 89
-9.269832e-01 -1.575001e-01 -7.043039e+00 66 66 68
-9.245780e-01 -1.554191e-01 -7.043280e+00 30 28 39
-9.287214e-01 -1.563690e-01 -7.043283e+00 22 22 32
-9.406772e-01 -1.640252e-01 -7.015293e+00 32 34 33
-9.406772e-01 -1.640252e-01 -7.015293e+00 32 34 33
-9.357374e-01 -1.650469e-01 -7.043111e+00 38 46 49
-9.416350e-01 -1.649187e-01 -7.016698e+00 15 17 15
-9.256369e-01 -1.564594e-01 -7.042788e+00 21 22 24
-9.417457e-01 -1.657233e-01 -7.016748e+00 5 7 4
-9.407846e-01 -1.587179e-01 -7.049006e+00 99 108 113
-9.369834e-01 -1.524080e-01 -7.010627e+00 108 110 107
-9.418418e-01 -1.658735e-01 -7.016309e+00 30 32 29
-9.355559e-01 -1.489752e-01 -7.007566e+00 3 5 2
-9.372525e-01 -1.667342e-01 -7.037319e+00 72 76 79
-9.354028e-01 -1.490573e-01 -7.007742e+00 49 51 48
-9.354028e-01 -1.490573e-01 -7.007742e+00 49 51 48
-9.186245e-01 -1.693597e-01 -7.046146e+00 165 167 166
-9.744252e-01 -2.499783e-01 -7.121910e+00 174 173 174
-1.042846e+00 -2.988774e-01 -7.260746e+00 35 34 32
-1.042846e+00 -2.988774e-01 -7.260746e+00 35 34 32
-9.402408e-01 -1.708969e-01 -7.040743e+00 179 179 177
-9.365843e-01 -1.505524e-01 -7.009831e+00 62 64 61
-9.389405e-01 -1.597454e-01 -7.014834e+00 71 71 68
-9.369432e-01 -1.516158e-01 -7.010390e+00 130 131 129
-9.380122e-01 -1.534451e-01 -7.011676e+00 28 29 26
-9.270570e-01 -1.592434e-01 -7.037377e+00 33 25 25
-1.009083e+00 -2.657633e-02 -7.230391e+00 73 76 75
-9.325604e-01 -1.672077e-01 -7.039087e+00 63 72 97
-9.311845e-01 -1.678693e-01 -7.040186e+00 79 83 102
-9.237262e-01 -1.615198e-01 -7.039720e+00 97 93 107
-9.347847e-01 -1.557723e-01 -7.010153e+00 5 5 3
-9.352160e-01 -1.569610e-01 -7.003800e+00 66 66 64
-9.360232e-01 -1.565394e-01 -7.004151e+00 8 10 7
-9.384332e-01 -1.657887e-01 -7.039607e+00 66 76 81
-9.400632e-01 -1.527248e-01 -7.010133e+00 7 9 6
-9.353083e-01 -1.569047e-01 -7.004518e+00 5 7 4
-9.370890e-01 -1.563969e-01 -7.004923e+00 81 83 80
-9.351221e-01 -1.570384e-01 -7.004238e+00 61 63 60
-9.340645e-01 -1.543834e-01 -7.010017e+00 57 64 77
-9.352452e-01 -1.570862e-01 -7.002506e+00 67 69 66
-9.369536e-01 -1.565667e-01 -7.003757e+00 8 10 7
-9.364218e-01 -1.568605e-01 -7.004064e+00 87 90 87
-9.368901e-01 -1.564967e-01 -7.003909e+00 79 81 77
-9.330794e-01 -1.553180e-01 -7.008893e+00 12 12 10
-9.334788e-01 -1.551535e-01 -7.008294e+00 41 41 39
-9.348759e-01 -1.550577e-01 -7.008141e+00 76 33 35
-9.359944e-01 -1.568157e-01 -7.004816e+00 52 53 50
-9.343153e-01 -1.565303e-01 -7.008057e+00 39 41 38
-9.352529e-01 -1.550456e-01 -7.008919e+00 72 42 46
-9.368046e-01 -1.503323e-01 -7.010843e+00 37 37 35
-9.359064e-01 -1.565892e-01 -7.004967e+00 0 1 0
-9.349104e-01 -1.563230e-01 -7.006296e+00 5 7 4
-9.372998e-01 -1.562689e-01 -7.005380e+00 83 85 83
-9.350467e-01 -1.552151e-01 -7.007796e+00 63 64 59
-9.361825e-01 -1.547137e-01 -7.011043e+00 52 52 52
-9.396137e-01 -1.539702e-01 -7.008662e+00 198 200 195
-9.359891e-01 -1.501641e-01 -7.013299e+00 110 109 106
-9.359891e-01 -1.501641e-01 -7.013299e+00 110 109 106
-9.245002e-01 -1.682764e-01 -7.044269e+00 76 84 103
-9.110864e-01 -1.481886e-01 -7.048191e+00 178 178 178
-9.484689e-01 -1.492083e-01 -7.024584e+00 81 83 80
-9.471275e-01 -1.532099e-01 -7.023513e+00 4 6 2
-9.240893e-01 -1.613591e-01 -7.040907e+00 96 91 104
-9.432101e-01 -1.495889e-01 -7.025515e+00 15 14 12
-9.453270e-01 -1.504211e-01 -7.025039e+00 136 138 135
-9.430684e-01 -1.492206e-01 -7.025498e+00 80 79 77
-9.419721e-01 -1.521501e-01 -7.024115e+00 84 84 76
-9.509506e-01 -1.508212e-01 -7.024419e+00 46 48 49
-9.501222e-01 -1.481610e-01 -7.023940e+00 42 44 41
-9.538781e-01 -1.484343e-01 -7.024026e+00 102 104 99
-9.255310e-01 -1.560322e-01 -7.044407e+00 60 59 65
-9.339175e-01 -1.614930e-01 -7.036970e+00 42 47 53
-9.349498e-01 -1.532038e-01 -7.041450e+00 66 65 81
-9.397082e-01 -1.626758e-01 -7.039625e+00 67 72 75
-9.332697e-01 -1.600565e-01 -7.034909e+00 90 93 98
-9.358544e-01 -1.581524e-01 -7.036064e+00 45 53 56
-9.358603e-01 -1.581187e-01 -7.036310e+00 45 53 56
-9.351814e-01 -1.646383e-01 -7.035022e+00 38 47 54
-9.360367e-01 -1.620054e-01 -7.036113e+00 47 54 60
-9.359238e-01 -1.617031e-01 -7.033670e+00 221 226 230
-9.359314e-01 -1.616962e-01 -7.033717e+00 221 226 230
-9.354770e-01 -1.651791e-01 -7.033227e+00 148 155 161
-9.349763e-01 -1.639857e-01 -7.033035e+00 163 170 177
-9.349727e-01 -1.639436e-01 -7.033152e+00 163 170 177
-9.313173e-01 -1.678382e-01 -7.040732e+00 72 78 103
-9.380190e-01 -1.655907e-01 -7.035353e+00 188 191 194
-9.376495e-01 -1.656587e-01 -7.033171e+00 102 106 109
-9.339861e-01 -1.628744e-01 -7.033347e+00 46 50 56
-1.085058e+00 4.163279e-02 -7.324206e+00 138 136 128
-1.070029e+00 3.677815e-02 -7.336937e+00 75 77 74
-9.400618e-01 -1.513218e-01 -7.011798e+00 83 85 82
-9.401002e-01 -1.556685e-01 -7.008511e+00 104 109 105
-9.420723e-01 -1.482107e-01 -7.011870e+00 3 4 0
-9.381585e-01 -1.554750e-01 -7.008478e+00 86 88 85
-9.365069e-01 -1.571609e-01 -7.004057e+00 88 90 87
-9.424572e-01 -1.502274e-01 -7.011349e+00 2 4 2
-9.417143e-01 -1.526740e-01 -7.010048e+00 134 134 132
-9.405059e-01 -1.519642e-01 -7.011778e+00 89 91 88
-9.424027e-01 -1.476327e-01 -7.011820e+00 107 109 105
-9.405178e-01 -1.544159e-01 -7.008335e+00 127 127 124
-9.423566e-01 -1.483449e-01 -7.011721e+00 5 5 0
-9.366597e-01 -1.464369e-01 -7.013719e+00 13 13 13
-9.311890e-01 -1.591124e-01 -7.005352e+00 11 12 11
-9.337405e-01 -1.555555e-01 -7.008964e+00 41 41 39
-9.411428e-01 -1.525590e-01 -7.010690e+00 131 132 130
-9.343829e-01 -1.564314e-01 -7.012545e+00 175 176 174
-9.409290e-01 -1.494854e-01 -7.012515e+00 7 7 5
-9.409851e-01 -1.481076e-01 -7.011753e+00 107 104 99
-9.350777e-01 -1.575086e-01 -7.002318e+00 56 58 57
-9.391716e-01 -1.527854e-01 -7.009788e+00 8 10 7
-9.413620e-01 -1.494846e-01 -7.009929e+00 101 101 101
-9.405550e-01 -1.548607e-01 -7.008244e+00 111 111 109
-9.403708e-01 -1.540676e-01 -7.008752e+00 60 60 58
-9.408862e-01 -1.528440e-01 -7.009606e+00 85 86 81
-9.425552e-01 -1.527407e-01 -7.010400e+00 98 92 74
-9.427484e-01 -1.504809e-01 -7.011405e+00 101 103 100
-9.426117e-01 -1.500635e-01 -7.011224e+00 108 109 110
-9.427152e-01 -1.478055e-01 -7.012021e+00 95 95 89
-9.957788e-01 2.766572e-02 -7.228788e+00 116 118 117
-9.860563e-01 1.768591e-03 -7.192289e+00 22 26 26
-9.906600e-01 1.576889e-03 -7.187896e+00 96 97 94
-9.829238e-01 -1.231913e-03 -7.180892e+00 118 121 114
-1.014005e+00 3.300388e-02 -7.246535e+00 56 58 55
-9.322974e-01 -1.460772e-01 -7.001820e+00 6 5 1
-9.403600e-01 -1.485624e-01 -7.046725e+00 180 182 181
-9.343399e-01 -1.628414e-01 -7.032602e+00 163 171 173
-9.400645e-01 -1.626548e-01 -7.040732e+00 72 76 81
-9.373855e-01 -1.640669e-01 -7.037490e+00 56 61 65
-9.140593e-01 -1.624773e-01 -7.049739e+00 50 51 55
-9.279027e-01 -1.682698e-01 -7.042411e+00 84 87 106
-9.368554e-01 -1.660244e-01 -7.036263e+00 75 86 91
-9.362457e-01 -1.640267e-01 -7.035046e+00 131 135 140
-9.331990e-01 -1.619697e-01 -7.034382e+00 41 46 52
-9.353953e-01 -1.527611e-01 -7.042623e+00 75 75 87
-9.304991e-01 -1.679250e-01 -7.041631e+00 89 92 111
-1.084230e+00 3.463296e-02 -7.357513e+00 7 9 6
-1.079676e+00 3.856042e-02 -7.358395e+00 100 103 98
-1.077832e+00 -3.384852e-02 -7.351259e+00 114 114 116
-1.172566e+00 -3.371122e-01 -7.372818e+00 81 80 78
-1.006584e+00 1.574444e-02 -7.230666e+00 42 44 45
-1.006584e+00 1.574444e-02 -7.230666e+00 42 44 45
-9.381574e-01 -1.470608e-01 -7.011862e+00 1 3 0
-9.326129e-01 -1.563656e-01 -7.008090e+00 10 10 8
-9.329357e-01 -1.557239e-01 -7.008690e+00 10 11 8
-9.364720e-01 -1.566149e-01 -7.003952e+00 2 4 1
-9.374703e-01 -1.523707e-01 -7.010982e+00 28 30 27
-9.408974e-01 -1.525550e-01 -7.042702e+00 79 87 89
-9.349012e-01 -1.565158e-01 -7.001753e+00 4 6 4
-9.341371e-01 -1.556600e-01 -7.009817e+00 32 32 32
-9.358360e-01 -1.567082e-01 -7.004527e+00 3 5 3
-9.375975e-01 -1.520003e-01 -7.011641e+00 124 126 123
-9.468181e-01 -1.579174e-01 -7.039338e+00 47 46 43
-1.008861e+00 2.176972e-02 -7.233185e+00 28 30 29
-9.355647e-01 -1.486696e-01 -7.009804e+00 14 13 11
-9.331551e-01 -1.486352e-01 -7.004356e+00 41 41 39
-9.403041e-01 -1.551503e-01 -7.044531e+00 122 129 135
-9.352990e-01 -1.494018e-01 -7.007531e+00 61 63 60
-9.347781e-01 -1.489147e-01 -7.008215e+00 110 109 104
-9.971144e-01 1.687842e-02 -7.208561e+00 92 92 89
-9.257349e-01 -1.682514e-01 -7.045213e+00 75 79 102
-1.015085e+00 3.110518e-02 -7.247682e+00 6 7 9
-9.182119e-01 -1.683192e-01 -7.051095e+00 73 76 83
-9.380083e-01 -1.660142e-01 -7.037385e+00 50 58 61
-9.380083e-01 -1.660142e-01 -7.037385e+00 50 58 61
-9.201060e-01 -1.688999e-01 -7.047921e+00 73 73 91
-9.366189e-01 -1.662868e-01 -7.035268e+00 105 110 114
-9.206826e-01 -1.683038e-01 -7.047297e+00 69 76 91
-9.202553e-01 -1.682972e-01 -7.048681e+00 75 81 97
-9.279029e-01 -1.681755e-01 -7.058384e+00 181 183 182
-9.333027e-01 -1.598277e-01 -7.035486e+00 116 119 124
-9.386502e-01 -1.511604e-01 -7.041513e+00 178 180 179
-9.201467e-01 -1.578287e-01 -6.987030e+00 0 255 0
-9.236980e-01 -1.632595e-01 -7.036607e+00 255 255 0
-9.215951e-01 -1.647720e-01 -6.987379e+00 255 0 0
-9.257154e-01 -1.617206e-01 -7.037115e+00 255 255 0
-9.220960e-01 -1.463568e-01 -6.986155e+00 0 255 0
-9.278128e-01 -1.584765e-01 -7.034326e+00 255 255 0
-9.212955e-01 -1.535132e-01 -6.988896e+00 255 0 0
-9.237759e-01 -1.701305e-01 -7.035989e+00 255 255 0
-9.217524e-01 -1.568208e-01 -6.988265e+00 0 255 0
-9.253267e-01 -1.659826e-01 -7.037288e+00 255 255 0
-9.220000e-01 -1.594114e-01 -6.987743e+00 255 0 0
-9.248879e-01 -1.626318e-01 -7.037555e+00 255 255 0
-9.221020e-01 -1.661551e-01 -6.986104e+00 0 255 0
-9.288674e-01 -1.752118e-01 -7.034810e+00 255 255 0
-9.225896e-01 -1.669103e-01 -6.986183e+00 255 0 0
-9.292035e-01 -1.692779e-01 -7.035687e+00 255 255 0
-9.227434e-01 -1.676320e-01 -6.986340e+00 0 255 0
-9.293016e-01 -1.654394e-01 -7.035860e+00 255 255 0
-9.227922e-01 -1.672444e-01 -6.986706e+00 255 0 0
-9.284109e-01 -1.606704e-01 -7.035952e+00 255 255 0
-9.265325e-01 -1.572968e-01 -6.996775e+00 0 255 0
-9.307801e-01 -1.660663e-01 -7.045817e+00 255 255 0
-9.272088e-01 -1.667553e-01 -6.997737e+00 255 0 0
-9.304868e-01 -1.667413e-01 -7.047629e+00 255 255 0
-9.263137e-01 -1.449840e-01 -6.990311e+00 0 255 0
-9.291866e-01 -1.649710e-01 -7.036052e+00 255 255 0
-9.261905e-01 -1.436628e-01 -6.990505e+00 255 0 0
-9.294177e-01 -1.624914e-01 -7.036712e+00 255 255 0
-9.261033e-01 -1.428021e-01 -6.990769e+00 0 255 0
-9.315527e-01 -1.596824e-01 -7.037517e+00 255 255 0
-9.263396e-01 -1.431626e-01 -6.990870e+00 255 0 0
-9.322550e-01 -1.560638e-01 -7.038813e+00 255 255 0
-9.228974e-01 -1.671539e-01 -6.986459e+00 0 255 0
-9.286511e-01 -1.576985e-01 -7.035219e+00 255 255 0
-9.316745e-01 -1.447856e-01 -7.000602e+00 255 0 0
-9.294381e-01 -1.691374e-01 -7.044214e+00 255 255 0
-9.289492e-01 -1.516751e-01 -6.996412e+00 0 255 0
-9.279642e-01 -1.677911e-01 -7.043733e+00 255 255 0
-9.267530e-01 -1.398253e-01 -6.990309e+00 255 0 0
-9.285087e-01 -1.607169e-01 -7.035701e+00 255 255 0
-9.275249e-01 -1.887845e-01 -7.091749e+00 0 255 0
-9.236503e-01 -2.129112e-01 -7.135371e+00 255 255 0
-9.264534e-01 -1.224933e-01 -6.995623e+00 255 0 0
-9.325357e-01 -1.542683e-01 -7.033746e+00 255 255 0
-9.265938e-01 -1.535033e-01 -6.992749e+00 0 255 0
-9.303731e-01 -1.593861e-01 -7.042258e+00 255 255 0
-9.238893e-01 -1.718137e-01 -6.990009e+00 255 0 0
-9.279452e-01 -1.618767e-01 -7.038844e+00 255 255 0
-9.239021e-01 -1.742377e-01 -6.989642e+00 0 255 0
-9.292748e-01 -1.655156e-01 -7.038582e+00 255 255 0
-9.278649e-01 -1.703748e-01 -6.999264e+00 255 0 0
-9.301805e-01 -1.644987e-01 -7.048863e+00 255 255 0
-9.276182e-01 -1.718478e-01 -7.000574e+00 0 255 0
-9.306600e-01 -1.653512e-01 -7.050057e+00 255 255 0
-9.245203e-01 -1.772858e-01 -6.989722e+00 255 0 0
-9.298343e-01 -1.650346e-01 -7.037906e+00 255 255 0
-9.284182e-01 -1.735614e-01 -7.001909e+00 0 255 0
-9.286741e-01 -1.639043e-01 -7.050967e+00 255 255 0
-9.270302e-01 -1.791807e-01 -6.994248e+00 255 0 0
-9.313223e-01 -1.668426e-01 -7.042511e+00 255 255 0
-9.315722e-01 -1.595962e-01 -7.006460e+00 0 255 0
-9.275952e-01 -1.650918e-01 -7.055998e+00 255 255 0
-9.317036e-01 -1.455334e-01 -7.001037e+00 255 0 0
-9.260784e-01 -1.721289e-01 -7.043002e+00 255 255 0
-9.291675e-01 -1.767124e-01 -7.002235e+00 0 255 0
-9.293117e-01 -1.623800e-01 -7.050137e+00 255 255 0
