ply
format ascii 1.0
element face 0
property list uchar int vertex_indices
element vertex 250
property float x
property float y
property float z
property uchar diffuse_red
property uchar diffuse_green
property uchar diffuse_blue
end_header
-9.287103e-01 -1.550596e-01 -7.043544e+00 30 31 52
-9.277903e-01 -1.571685e-01 -7.041570e+00 23 21 21
-9.240652e-01 -1.573094e-01 -7.044897e+00 26 27 30
-9.250144e-01 -1.612068e-01 -7.039072e+00 93 90 102
-9.235899e-01 -1.612637e-01 -7.040530e+00 95 93 105
-9.365752e-01 -1.510701e-01 -7.045770e+00 64 64 74
-9.235239e-01 -1.612383e-01 -7.040340e+00 95 93 105
-9.283956e-01 -1.609225e-01 -7.036548e+00 96 92 107
-9.293500e-01 -1.607603e-01 -7.035817e+00 97 94 113
-9.193298e-01 -1.617250e-01 -7.044431e+00 90 89 105
-9.368971e-01 -1.537580e-01 -7.044070e+00 55 58 65
-9.372055e-01 -1.652793e-01 -7.039789e+00 50 56 63
-9.147687e-01 -1.687851e-01 -7.050148e+00 103 105 104
-9.346688e-01 -1.604674e-01 -7.034460e+00 39 48 51
-9.351757e-01 -1.673323e-01 -7.038458e+00 76 83 93
-9.294431e-01 -1.607196e-01 -7.036434e+00 97 94 113
-9.192880e-01 -1.616712e-01 -7.043388e+00 90 89 105
-9.388537e-01 -1.521742e-01 -7.042309e+00 66 68 73
-9.317451e-01 -1.627783e-01 -7.034552e+00 86 97 119
-9.266291e-01 -1.521068e-01 -7.050513e+00 76 73 87
-1.062662e+00 -4.676507e-02 -7.319286e+00 118 116 117
-9.180202e-01 -1.686028e-01 -7.049546e+00 88 94 100
-9.333638e-01 -1.674395e-01 -7.038940e+00 70 76 97
-9.360129e-01 -1.640675e-01 -7.034322e+00 88 93 97
-9.331367e-01 -1.729425e-01 -7.033376e+00 176 176 176
-9.148040e-01 -1.734189e-01 -7.049326e+00 171 173 170
-9.220775e-01 -1.532573e-01 -7.052979e+00 66 65 81
-1.063639e+00 -4.677205e-02 -7.334306e+00 124 122 123
-9.360140e-01 -1.678213e-01 -7.037496e+00 177 179 178
-9.257855e-01 -1.678426e-01 -7.044027e+00 75 86 108
-9.367682e-01 -1.667845e-01 -7.037705e+00 46 53 59
-9.363433e-01 -1.605890e-01 -7.035480e+00 151 160 163
-9.282187e-01 -1.520481e-01 -7.048975e+00 78 76 90
-9.257210e-01 -1.679408e-01 -7.044300e+00 73 84 106
-9.201707e-01 -1.683908e-01 -7.047985e+00 77 85 107
-9.366125e-01 -1.510008e-01 -7.044567e+00 65 65 75
-1.070635e+00 -3.922971e-02 -7.329058e+00 10 12 13
-9.366672e-01 -1.655726e-01 -7.035770e+00 90 96 102
-9.225808e-01 -1.601403e-01 -7.042744e+00 32 30 38
-9.282642e-01 -1.580882e-01 -7.040330e+00 83 82 104
-9.374861e-01 -1.574776e-01 -7.036810e+00 99 104 108
-9.402917e-01 -1.533156e-01 -7.041144e+00 86 90 93
-9.354073e-01 -1.632448e-01 -7.034385e+00 95 102 106
-9.349747e-01 -1.630777e-01 -7.033033e+00 95 102 106
-9.343598e-01 -1.615917e-01 -7.033521e+00 80 89 92
-9.255281e-01 -1.581013e-01 -7.042297e+00 65 63 66
-9.262230e-01 -1.580489e-01 -7.041696e+00 64 62 63
-9.250314e-01 -1.572495e-01 -7.043913e+00 65 65 67
-9.250370e-01 -1.572122e-01 -7.043815e+00 65 65 67
-9.269032e-01 -1.571118e-01 -7.042317e+00 66 64 65
-9.279891e-01 -1.562517e-01 -7.042637e+00 63 65 69
-9.273167e-01 -1.562318e-01 -7.043131e+00 68 71 74
-9.273131e-01 -1.562295e-01 -7.043125e+00 68 71 74
-9.344031e-01 -1.408548e-01 -7.049934e+00 183 183 183
-9.126721e-01 -1.741999e-01 -7.049308e+00 179 179 178
-9.465793e-01 -1.516784e-01 -7.051764e+00 121 123 122
-9.348823e-01 -1.524325e-01 -7.043183e+00 64 61 80
-9.352866e-01 -1.622161e-01 -7.033168e+00 47 54 60
-9.360706e-01 -1.608305e-01 -7.034546e+00 148 156 159
-9.352940e-01 -1.652969e-01 -7.031949e+00 112 120 125
-9.356808e-01 -1.652575e-01 -7.033268e+00 112 120 125
-9.343235e-01 -1.616597e-01 -7.033295e+00 91 100 103
-1.060904e+00 -1.770935e-01 -7.311306e+00 166 168 164
-1.079763e+00 -2.248022e-02 -7.356570e+00 49 50 50
-1.062223e+00 -2.799365e-02 -7.320783e+00 95 94 90
-1.062223e+00 -2.799365e-02 -7.320783e+00 95 94 90
-9.256158e-01 -1.550550e-01 -7.046041e+00 33 35 51
-9.354590e-01 -1.646813e-01 -7.036363e+00 48 54 60
-9.361686e-01 -1.603874e-01 -7.034822e+00 152 160 163
-9.290077e-01 -1.538468e-01 -7.045255e+00 92 88 105
-9.250125e-01 -1.611800e-01 -7.039067e+00 98 91 109
-9.291064e-01 -1.564287e-01 -7.041201e+00 80 82 108
-9.283070e-01 -1.609097e-01 -7.036133e+00 98 94 111
-9.353078e-01 -1.627632e-01 -7.035239e+00 154 159 163
-9.247502e-01 -1.562853e-01 -7.045033e+00 62 66 69
-9.392704e-01 -1.531363e-01 -7.039574e+00 138 144 148
-1.019003e+00 -1.594689e-01 -7.216379e+00 55 57 54
-9.351254e-01 -1.589141e-01 -7.033861e+00 43 51 54
-9.244099e-01 -1.682225e-01 -7.045911e+00 81 89 110
-9.193656e-01 -1.619851e-01 -7.045485e+00 93 90 109
-9.333614e-01 -1.673761e-01 -7.039055e+00 72 78 100
-9.217633e-01 -1.537883e-01 -7.050964e+00 68 65 82
-9.347546e-01 -1.629453e-01 -7.033110e+00 107 114 120
-9.347546e-01 -1.629453e-01 -7.033110e+00 107 114 120
-9.370112e-01 -1.604700e-01 -7.038277e+00 154 159 163
-9.055404e-01 -1.671076e-01 -7.044005e+00 132 132 132
-9.391081e-01 -1.519059e-01 -7.043912e+00 66 73 76
-9.364041e-01 -1.606870e-01 -7.036043e+00 152 160 163
-9.366757e-01 -1.649224e-01 -7.036247e+00 106 113 119
-9.366757e-01 -1.649224e-01 -7.036247e+00 106 113 119
-9.376403e-01 -1.663048e-01 -7.037473e+00 131 135 138
-9.376403e-01 -1.663048e-01 -7.037473e+00 131 135 138
-9.363865e-01 -1.593390e-01 -7.037585e+00 94 101 107
-9.268837e-01 -1.572598e-01 -7.042460e+00 69 69 70
-9.406315e-01 -1.530584e-01 -7.043480e+00 135 139 142
-1.141723e+00 -2.212551e-01 -7.372925e+00 52 53 56
-9.253986e-01 -1.562174e-01 -7.044690e+00 66 67 72
-9.375733e-01 -1.546768e-01 -7.038228e+00 84 87 92
-9.371305e-01 -1.651230e-01 -7.039501e+00 48 55 61
-9.049411e-01 -1.680187e-01 -7.045765e+00 132 132 132
-9.174843e-01 -1.698216e-01 -7.055782e+00 163 164 166
-9.379315e-01 -1.646310e-01 -7.037045e+00 67 78 82
-9.430139e-01 -1.524995e-01 -7.046311e+00 179 183 184
-9.269912e-01 -1.535233e-01 -7.046004e+00 99 95 110
-9.404801e-01 -1.527014e-01 -7.039723e+00 79 85 88
-9.365098e-01 -1.500955e-01 -7.041214e+00 70 68 82
-9.383821e-01 -1.502236e-01 -7.039309e+00 85 86 89
-9.268973e-01 -1.571047e-01 -7.042144e+00 66 66 68
-9.244413e-01 -1.552469e-01 -7.042985e+00 30 28 39
-9.286168e-01 -1.562070e-01 -7.043031e+00 22 22 32
-9.411228e-01 -1.647455e-01 -7.015510e+00 32 34 33
-9.411228e-01 -1.647455e-01 -7.015510e+00 32 34 33
-9.356516e-01 -1.648846e-01 -7.042746e+00 38 46 49
-9.417159e-01 -1.649359e-01 -7.016392e+00 15 17 15
-9.254787e-01 -1.563688e-01 -7.042779e+00 21 22 24
-9.418593e-01 -1.658032e-01 -7.016486e+00 5 7 4
-9.406111e-01 -1.583968e-01 -7.048434e+00 99 108 113
-9.368291e-01 -1.520853e-01 -7.009893e+00 108 110 107
-9.420907e-01 -1.662333e-01 -7.016248e+00 30 32 29
-9.353280e-01 -1.485867e-01 -7.006641e+00 3 5 2
-9.371921e-01 -1.666302e-01 -7.037098e+00 72 76 79
-9.351621e-01 -1.486866e-01 -7.006836e+00 49 51 48
-9.351621e-01 -1.486866e-01 -7.006836e+00 49 51 48
-9.183988e-01 -1.693403e-01 -7.046090e+00 165 167 166
-9.748521e-01 -2.509559e-01 -7.123599e+00 174 173 174
-1.042478e+00 -2.980050e-01 -7.261172e+00 35 34 32
-1.042478e+00 -2.980050e-01 -7.261172e+00 35 34 32
-9.402501e-01 -1.708650e-01 -7.040511e+00 179 179 177
-9.361497e-01 -1.500347e-01 -7.008611e+00 62 64 61
-9.390879e-01 -1.598807e-01 -7.014653e+00 71 71 68
-9.366594e-01 -1.511484e-01 -7.009414e+00 130 131 129
-9.378575e-01 -1.531230e-01 -7.010949e+00 28 29 26
-9.353955e-01 -1.485225e-01 -7.006608e+00 1 4 1
-9.269460e-01 -1.591774e-01 -7.037247e+00 33 25 25
-1.009191e+00 -2.604521e-02 -7.230766e+00 73 76 75
-9.324342e-01 -1.671518e-01 -7.038518e+00 63 72 97
-9.311044e-01 -1.678130e-01 -7.039943e+00 79 83 102
-9.235508e-01 -1.613670e-01 -7.039687e+00 97 93 107
-9.351115e-01 -1.561542e-01 -7.010520e+00 5 5 3
-9.371374e-01 -1.597214e-01 -7.006055e+00 66 66 64
-9.378949e-01 -1.588782e-01 -7.006148e+00 8 10 7
-9.389425e-01 -1.662191e-01 -7.040670e+00 66 76 81
-9.397936e-01 -1.523038e-01 -7.009192e+00 7 9 6
-9.369997e-01 -1.592888e-01 -7.006560e+00 5 7 4
-9.389514e-01 -1.584253e-01 -7.006762e+00 81 83 80
-9.369560e-01 -1.597208e-01 -7.006498e+00 61 63 60
-9.339883e-01 -1.541892e-01 -7.009502e+00 57 64 77
-9.376279e-01 -1.605346e-01 -7.005040e+00 67 69 66
-9.392561e-01 -1.591698e-01 -7.005929e+00 8 10 7
-9.385627e-01 -1.595260e-01 -7.006308e+00 87 90 87
-9.391036e-01 -1.589956e-01 -7.006025e+00 79 81 77
-9.332423e-01 -1.555751e-01 -7.009043e+00 12 12 10
-9.337387e-01 -1.555763e-01 -7.008696e+00 41 41 39
-9.351853e-01 -1.553696e-01 -7.008345e+00 76 33 35
-9.377698e-01 -1.590957e-01 -7.006824e+00 52 53 50
-9.350608e-01 -1.577052e-01 -7.009312e+00 39 41 38
-9.355093e-01 -1.552585e-01 -7.009003e+00 72 42 46
-9.367459e-01 -1.499846e-01 -7.010272e+00 37 37 35
-9.375679e-01 -1.587116e-01 -7.006889e+00 0 1 0
-9.359412e-01 -1.577561e-01 -7.007687e+00 5 7 4
-9.390521e-01 -1.580941e-01 -7.007092e+00 83 85 83
-9.355280e-01 -1.557414e-01 -7.008294e+00 63 64 59
-9.362416e-01 -1.546351e-01 -7.010736e+00 52 52 52
-9.400255e-01 -1.540527e-01 -7.008597e+00 198 200 195
-9.345895e-01 -1.490023e-01 -7.009679e+00 110 109 106
-9.345895e-01 -1.490023e-01 -7.009679e+00 110 109 106
-9.243666e-01 -1.682284e-01 -7.044036e+00 76 84 103
-9.108750e-01 -1.479656e-01 -7.047859e+00 178 178 178
-9.485894e-01 -1.489209e-01 -7.024241e+00 81 83 80
-9.472631e-01 -1.529636e-01 -7.023189e+00 4 6 2
-9.239541e-01 -1.612119e-01 -7.040538e+00 96 91 104
-9.432666e-01 -1.493050e-01 -7.025153e+00 15 14 12
-9.454152e-01 -1.501455e-01 -7.024693e+00 136 138 135
-9.431208e-01 -1.489329e-01 -7.025130e+00 80 79 77
-9.420251e-01 -1.518848e-01 -7.023747e+00 84 84 76
-9.511147e-01 -1.505530e-01 -7.024095e+00 46 48 49
-9.502485e-01 -1.478614e-01 -7.023580e+00 42 44 41
-9.540458e-01 -1.481404e-01 -7.023675e+00 102 104 99
-9.254050e-01 -1.558733e-01 -7.044183e+00 60 59 65
-9.336603e-01 -1.616042e-01 -7.035768e+00 42 47 53
-9.348872e-01 -1.530546e-01 -7.041154e+00 66 65 81
-9.383103e-01 -1.634763e-01 -7.034943e+00 67 72 75
-9.331476e-01 -1.600275e-01 -7.034300e+00 90 93 98
-9.359191e-01 -1.577933e-01 -7.036555e+00 45 53 56
-9.357593e-01 -1.580713e-01 -7.035778e+00 45 53 56
-9.351102e-01 -1.645760e-01 -7.034628e+00 38 47 54
-9.371103e-01 -1.609267e-01 -7.040012e+00 47 54 60
-9.356959e-01 -1.617790e-01 -7.032698e+00 221 226 230
-9.357009e-01 -1.617713e-01 -7.032745e+00 221 226 230
-9.355618e-01 -1.650182e-01 -7.033393e+00 148 155 161
-9.350892e-01 -1.637640e-01 -7.033380e+00 163 170 177
-9.349245e-01 -1.638517e-01 -7.032880e+00 163 170 177
-9.311109e-01 -1.678298e-01 -7.039709e+00 72 78 103
-9.379040e-01 -1.655415e-01 -7.034847e+00 188 191 194
-9.375563e-01 -1.656164e-01 -7.032683e+00 102 106 109
-9.339498e-01 -1.627572e-01 -7.033140e+00 46 50 56
-9.199924e-01 -1.576927e-01 -6.986311e+00 0 255 0
-9.235232e-01 -1.631215e-01 -7.035890e+00 255 255 0
-9.214588e-01 -1.647022e-01 -6.986664e+00 255 0 0
-9.255622e-01 -1.616466e-01 -7.036402e+00 255 255 0
-9.219836e-01 -1.462363e-01 -6.985469e+00 0 255 0
-9.276661e-01 -1.582732e-01 -7.033664e+00 255 255 0
-9.211771e-01 -1.534498e-01 -6.988209e+00 255 0 0
-9.236243e-01 -1.699759e-01 -7.035335e+00 255 255 0
-9.216036e-01 -1.567106e-01 -6.987550e+00 0 255 0
-9.251645e-01 -1.658399e-01 -7.036580e+00 255 255 0
-9.218612e-01 -1.592829e-01 -6.987031e+00 255 0 0
-9.247301e-01 -1.625052e-01 -7.036845e+00 255 255 0
-9.219484e-01 -1.660849e-01 -6.985364e+00 0 255 0
-9.287061e-01 -1.751478e-01 -7.034070e+00 255 255 0
-9.224568e-01 -1.668558e-01 -6.985472e+00 255 0 0
-9.290547e-01 -1.692219e-01 -7.034978e+00 255 255 0
-9.226334e-01 -1.675599e-01 -6.985637e+00 0 255 0
-9.291627e-01 -1.653867e-01 -7.035161e+00 255 255 0
-9.226788e-01 -1.671973e-01 -6.986008e+00 255 0 0
-9.282720e-01 -1.606168e-01 -7.035257e+00 255 255 0
-9.264212e-01 -1.571676e-01 -6.996147e+00 0 255 0
-9.306544e-01 -1.659258e-01 -7.045191e+00 255 255 0
-9.271083e-01 -1.666933e-01 -6.997134e+00 255 0 0
-9.303743e-01 -1.666784e-01 -7.047027e+00 255 255 0
-9.255108e-01 -1.441192e-01 -6.988999e+00 0 255 0
-9.289482e-01 -1.644803e-01 -7.034535e+00 255 255 0
-9.258849e-01 -1.432057e-01 -6.989669e+00 255 0 0
-9.292643e-01 -1.621710e-01 -7.035809e+00 255 255 0
-9.262152e-01 -1.426861e-01 -6.990248e+00 0 255 0
-9.314371e-01 -1.594889e-01 -7.037049e+00 255 255 0
-9.262650e-01 -1.429439e-01 -6.990299e+00 255 0 0
-9.321299e-01 -1.558409e-01 -7.038249e+00 255 255 0
-9.227749e-01 -1.670829e-01 -6.985729e+00 0 255 0
-9.285082e-01 -1.576432e-01 -7.034494e+00 255 255 0
-9.316431e-01 -1.446596e-01 -7.000040e+00 255 0 0
-9.293239e-01 -1.688635e-01 -7.043730e+00 255 255 0
-9.289195e-01 -1.516590e-01 -6.995829e+00 0 255 0
-9.278621e-01 -1.676160e-01 -7.043203e+00 255 255 0
-9.267967e-01 -1.393749e-01 -6.989645e+00 255 0 0
-9.284221e-01 -1.603904e-01 -7.034985e+00 255 255 0
-9.274290e-01 -1.889490e-01 -7.092021e+00 0 255 0
-9.235673e-01 -2.130689e-01 -7.135648e+00 255 255 0
-9.263166e-01 -1.220066e-01 -6.994894e+00 255 0 0
-9.324125e-01 -1.537675e-01 -7.033027e+00 255 255 0
-9.264325e-01 -1.530727e-01 -6.992045e+00 0 255 0
-9.302497e-01 -1.592002e-01 -7.041521e+00 255 255 0
-9.237153e-01 -1.718776e-01 -6.989351e+00 255 0 0
-9.278044e-01 -1.618586e-01 -7.038166e+00 255 255 0
-9.236773e-01 -1.743262e-01 -6.989018e+00 0 255 0
-9.291296e-01 -1.655084e-01 -7.037932e+00 255 255 0
-9.278068e-01 -1.703199e-01 -6.998713e+00 255 0 0
-9.300630e-01 -1.644617e-01 -7.048318e+00 255 255 0
-9.275197e-01 -1.718293e-01 -7.000034e+00 0 255 0
-9.305435e-01 -1.653020e-01 -7.049513e+00 255 255 0
