ply
format ascii 1.0
element face 0
property list uchar int vertex_indices
element vertex 174
property float x
property float y
property float z
property uchar diffuse_red
property uchar diffuse_green
property uchar diffuse_blue
end_header
-9.292399e-01 -1.560143e-01 -7.042265e+00 30 31 52
-9.283140e-01 -1.581486e-01 -7.040423e+00 23 21 21
-9.243978e-01 -1.583571e-01 -7.043538e+00 26 27 30
-9.253994e-01 -1.623601e-01 -7.037744e+00 93 90 102
-9.238994e-01 -1.623947e-01 -7.039047e+00 95 93 105
-9.373914e-01 -1.518531e-01 -7.044509e+00 64 64 74
-9.238761e-01 -1.624211e-01 -7.039130e+00 95 93 105
-9.289112e-01 -1.620628e-01 -7.035033e+00 96 92 107
-9.299095e-01 -1.619025e-01 -7.034281e+00 97 94 113
-9.195276e-01 -1.628511e-01 -7.042945e+00 90 89 105
-9.377734e-01 -1.546385e-01 -7.042896e+00 55 58 65
-9.376115e-01 -1.663742e-01 -7.036957e+00 50 56 63
-9.146917e-01 -1.702336e-01 -7.049700e+00 103 105 104
-9.352857e-01 -1.615924e-01 -7.032167e+00 39 48 51
-9.359810e-01 -1.687716e-01 -7.037171e+00 76 83 93
-9.300322e-01 -1.618898e-01 -7.035035e+00 97 94 113
-9.194395e-01 -1.628092e-01 -7.042368e+00 90 89 105
-9.399405e-01 -1.529328e-01 -7.041450e+00 66 68 73
-9.324126e-01 -1.640031e-01 -7.033058e+00 86 97 119
-9.271477e-01 -1.527991e-01 -7.050178e+00 76 73 87
-1.063188e+00 -4.749233e-02 -7.317452e+00 118 116 117
-9.180708e-01 -1.700811e-01 -7.049321e+00 88 94 100
-9.341411e-01 -1.688623e-01 -7.037857e+00 70 76 97
-9.367550e-01 -1.653405e-01 -7.032499e+00 88 93 97
-9.339977e-01 -1.748392e-01 -7.032327e+00 176 176 176
-9.145964e-01 -1.751967e-01 -7.049377e+00 171 173 170
-9.223651e-01 -1.539786e-01 -7.052456e+00 66 65 81
-1.064522e+00 -4.738265e-02 -7.333063e+00 124 122 123
-9.367908e-01 -1.692567e-01 -7.036023e+00 177 179 178
-9.261752e-01 -1.692903e-01 -7.043106e+00 75 86 108
-9.375335e-01 -1.681565e-01 -7.036099e+00 46 53 59
-9.370588e-01 -1.617315e-01 -7.033503e+00 151 160 163
-9.288242e-01 -1.527444e-01 -7.048627e+00 78 76 90
-9.261750e-01 -1.693589e-01 -7.043373e+00 73 84 106
-9.203441e-01 -1.698569e-01 -7.047531e+00 77 85 107
-9.374702e-01 -1.517729e-01 -7.043260e+00 65 65 75
-1.071642e+00 -3.977559e-02 -7.327932e+00 10 12 13
-9.373890e-01 -1.668758e-01 -7.033883e+00 90 96 102
-9.229016e-01 -1.612141e-01 -7.041267e+00 32 30 38
-9.287916e-01 -1.591093e-01 -7.038936e+00 83 82 104
-9.382341e-01 -1.585319e-01 -7.034803e+00 99 104 108
-9.412652e-01 -1.541968e-01 -7.039653e+00 86 90 93
-9.361045e-01 -1.644736e-01 -7.032454e+00 95 102 106
-9.355499e-01 -1.642662e-01 -7.030685e+00 95 102 106
-9.349709e-01 -1.627524e-01 -7.031343e+00 80 89 92
-9.259320e-01 -1.590991e-01 -7.040841e+00 65 63 66
-9.266565e-01 -1.590077e-01 -7.040165e+00 64 62 63
-9.254120e-01 -1.582612e-01 -7.042577e+00 65 65 67
-9.254119e-01 -1.582455e-01 -7.042517e+00 65 65 67
-9.273606e-01 -1.580963e-01 -7.040886e+00 66 64 65
-9.284928e-01 -1.571495e-01 -7.041104e+00 63 65 69
-9.278053e-01 -1.571585e-01 -7.041697e+00 68 71 74
-9.277976e-01 -1.571521e-01 -7.041671e+00 68 71 74
-9.357807e-01 -1.407860e-01 -7.050006e+00 183 183 183
-9.131511e-01 -1.754881e-01 -7.045980e+00 179 179 178
-9.479118e-01 -1.524078e-01 -7.051223e+00 121 123 122
-9.357008e-01 -1.532223e-01 -7.042155e+00 64 61 80
-9.361253e-01 -1.633879e-01 -7.031765e+00 47 54 60
-9.369683e-01 -1.619355e-01 -7.033284e+00 148 156 159
-9.361479e-01 -1.665897e-01 -7.030538e+00 112 120 125
-9.365155e-01 -1.665541e-01 -7.031791e+00 112 120 125
-9.351237e-01 -1.628100e-01 -7.031893e+00 91 100 103
-1.062499e+00 -1.785172e-01 -7.311981e+00 166 168 164
-1.080857e+00 -2.275314e-02 -7.355736e+00 49 50 50
-1.063391e+00 -2.825096e-02 -7.320036e+00 95 94 90
-1.063391e+00 -2.825096e-02 -7.320036e+00 95 94 90
-9.260391e-01 -1.561907e-01 -7.045217e+00 33 35 51
-9.361787e-01 -1.659831e-01 -7.034685e+00 48 54 60
-9.369247e-01 -1.615710e-01 -7.033030e+00 152 160 163
-9.295722e-01 -1.548659e-01 -7.044658e+00 92 88 105
-9.254134e-01 -1.623537e-01 -7.037704e+00 98 91 109
-9.296091e-01 -1.572107e-01 -7.039281e+00 80 82 108
-9.288071e-01 -1.620262e-01 -7.034551e+00 98 94 111
-9.360307e-01 -1.640185e-01 -7.033509e+00 154 159 163
-9.250499e-01 -1.574783e-01 -7.044308e+00 62 66 69
-9.401744e-01 -1.540313e-01 -7.037919e+00 138 144 148
-1.023623e+00 -1.604178e-01 -7.223665e+00 55 57 54
-9.358570e-01 -1.600211e-01 -7.031973e+00 43 51 54
-9.247927e-01 -1.697108e-01 -7.045432e+00 81 89 110
-9.196120e-01 -1.630440e-01 -7.043648e+00 93 90 109
-9.340042e-01 -1.687471e-01 -7.037472e+00 72 78 100
-9.220943e-01 -1.547523e-01 -7.049627e+00 68 65 82
-9.355928e-01 -1.641376e-01 -7.031787e+00 107 114 120
-9.355928e-01 -1.641376e-01 -7.031787e+00 107 114 120
-9.379073e-01 -1.615781e-01 -7.037059e+00 154 159 163
-9.063368e-01 -1.672959e-01 -7.039860e+00 132 132 132
-9.400941e-01 -1.527954e-01 -7.043360e+00 66 73 76
-9.372239e-01 -1.619413e-01 -7.034597e+00 152 160 163
-9.374125e-01 -1.662273e-01 -7.034548e+00 106 113 119
-9.374125e-01 -1.662273e-01 -7.034548e+00 106 113 119
-9.383833e-01 -1.676209e-01 -7.035772e+00 131 135 138
-9.383833e-01 -1.676209e-01 -7.035772e+00 131 135 138
-9.372156e-01 -1.605279e-01 -7.036199e+00 94 101 107
-9.273049e-01 -1.578623e-01 -7.039868e+00 69 69 70
-9.412858e-01 -1.537579e-01 -7.041402e+00 135 139 142
-1.144322e+00 -2.192967e-01 -7.376111e+00 52 53 56
-9.257823e-01 -1.574382e-01 -7.044175e+00 66 67 72
-9.383690e-01 -1.556542e-01 -7.036373e+00 84 87 92
-9.379040e-01 -1.664154e-01 -7.037954e+00 48 55 61
-9.086454e-01 -1.646629e-01 -7.034008e+00 132 132 132
-9.178843e-01 -1.709818e-01 -7.053807e+00 163 164 166
-9.390773e-01 -1.664650e-01 -7.036908e+00 67 78 82
-9.457491e-01 -1.543764e-01 -7.051610e+00 179 183 184
-9.274828e-01 -1.547445e-01 -7.045599e+00 99 95 110
-9.417505e-01 -1.538448e-01 -7.039951e+00 79 85 88
-9.372887e-01 -1.508876e-01 -7.040407e+00 70 68 82
-9.393392e-01 -1.510592e-01 -7.038819e+00 85 86 89
-9.272886e-01 -1.577144e-01 -7.039365e+00 66 66 68
-9.246459e-01 -1.571998e-01 -7.045536e+00 30 28 39
-9.291375e-01 -1.571159e-01 -7.041754e+00 22 22 32
-9.417464e-01 -1.653834e-01 -7.012990e+00 32 34 33
-9.417464e-01 -1.653834e-01 -7.012990e+00 32 34 33
-9.363765e-01 -1.658924e-01 -7.041061e+00 38 46 49
-9.427809e-01 -1.662826e-01 -7.014451e+00 15 17 15
-9.258348e-01 -1.575459e-01 -7.042016e+00 21 22 24
-9.427946e-01 -1.669529e-01 -7.014394e+00 5 7 4
-9.411173e-01 -1.588882e-01 -7.045723e+00 99 108 113
-9.372676e-01 -1.527135e-01 -7.006856e+00 108 110 107
-9.428658e-01 -1.671227e-01 -7.013955e+00 30 32 29
-9.349809e-01 -1.486889e-01 -7.002246e+00 3 5 2
-9.381377e-01 -1.680213e-01 -7.035940e+00 72 76 79
-9.349237e-01 -1.488172e-01 -7.002491e+00 49 51 48
-9.349237e-01 -1.488172e-01 -7.002491e+00 49 51 48
-9.186111e-01 -1.707226e-01 -7.045152e+00 165 167 166
-9.782668e-01 -2.571879e-01 -7.130874e+00 174 173 174
-1.042523e+00 -2.953126e-01 -7.260581e+00 35 34 32
-1.042523e+00 -2.953126e-01 -7.260581e+00 35 34 32
-9.416881e-01 -1.728064e-01 -7.040237e+00 179 179 177
-9.353051e-01 -1.494222e-01 -7.003222e+00 62 64 61
-9.395202e-01 -1.602446e-01 -7.011713e+00 71 71 68
-9.357569e-01 -1.502855e-01 -7.003972e+00 130 131 129
-9.375976e-01 -1.529260e-01 -7.006789e+00 28 29 26
-9.346412e-01 -1.482630e-01 -7.001548e+00 1 4 1
-9.273530e-01 -1.600424e-01 -7.035162e+00 33 25 25
-9.203309e-01 -1.587481e-01 -6.982716e+00 0 255 0
-9.237111e-01 -1.641095e-01 -7.032313e+00 255 255 0
-9.217880e-01 -1.660573e-01 -6.983431e+00 255 0 0
-9.258635e-01 -1.629269e-01 -7.033167e+00 255 255 0
-9.223950e-01 -1.472394e-01 -6.981906e+00 0 255 0
-9.279593e-01 -1.589285e-01 -7.030201e+00 255 255 0
-9.215215e-01 -1.547002e-01 -6.984702e+00 255 0 0
-9.238411e-01 -1.708728e-01 -7.031958e+00 255 255 0
-9.218196e-01 -1.580930e-01 -6.984051e+00 0 255 0
-9.253982e-01 -1.668395e-01 -7.033150e+00 255 255 0
-9.222470e-01 -1.603716e-01 -6.983567e+00 255 0 0
-9.250021e-01 -1.635579e-01 -7.033389e+00 255 255 0
-9.221069e-01 -1.672042e-01 -6.981886e+00 0 255 0
-9.289535e-01 -1.764568e-01 -7.030543e+00 255 255 0
-9.228514e-01 -1.682353e-01 -6.982238e+00 255 0 0
-9.294018e-01 -1.705789e-01 -7.031752e+00 255 255 0
-9.230170e-01 -1.689490e-01 -6.982352e+00 0 255 0
-9.295101e-01 -1.667695e-01 -7.031881e+00 255 255 0
-9.230360e-01 -1.685694e-01 -6.982670e+00 255 0 0
-9.286032e-01 -1.619989e-01 -7.031923e+00 255 255 0
-9.269118e-01 -1.582041e-01 -6.993072e+00 0 255 0
-9.310630e-01 -1.669187e-01 -7.042131e+00 255 255 0
-9.276479e-01 -1.680526e-01 -6.994328e+00 255 0 0
-9.308762e-01 -1.680238e-01 -7.044223e+00 255 255 0
-9.260350e-01 -1.435306e-01 -6.986501e+00 0 255 0
-9.292683e-01 -1.649054e-01 -7.031586e+00 255 255 0
-9.262998e-01 -1.434725e-01 -6.986898e+00 255 0 0
-9.296780e-01 -1.627208e-01 -7.032921e+00 255 255 0
-9.262221e-01 -1.433332e-01 -6.986800e+00 0 255 0
-9.318351e-01 -1.599117e-01 -7.033636e+00 255 255 0
-9.266051e-01 -1.436240e-01 -6.987288e+00 255 0 0
-9.325302e-01 -1.563932e-01 -7.035265e+00 255 255 0
-9.231275e-01 -1.684355e-01 -6.982357e+00 0 255 0
-9.288348e-01 -1.590171e-01 -7.031130e+00 255 255 0
-9.323644e-01 -1.459703e-01 -6.997472e+00 255 0 0
-9.300233e-01 -1.695526e-01 -7.041499e+00 255 255 0
-9.295546e-01 -1.531685e-01 -6.992826e+00 0 255 0
-9.283697e-01 -1.684296e-01 -7.040425e+00 255 255 0
-9.259245e-01 -1.395097e-01 -6.986687e+00 255 0 0
-9.287423e-01 -1.607467e-01 -7.031865e+00 255 255 0
