ply
format ascii 1.0
element face 0
property list uchar int vertex_indices
element vertex 61
property float x
property float y
property float z
property uchar diffuse_red
property uchar diffuse_green
property uchar diffuse_blue
end_header
-8.971637e-01 -1.459894e-01 -7.105855e+00 174 176 175
-9.121434e-01 -1.669369e-01 -7.101205e+00 60 52 54
-6.802727e+01 4.846333e+01 -1.290425e+02 37 37 35
-9.211715e-01 -1.550448e-01 -7.080952e+00 30 31 52
-9.186898e-01 -1.599973e-01 -7.077315e+00 23 21 21
-9.091892e-01 -1.604544e-01 -7.083840e+00 26 27 30
-9.116034e-01 -1.700486e-01 -7.071966e+00 93 90 102
-9.078738e-01 -1.701784e-01 -7.074637e+00 95 93 105
-9.121434e-01 -1.669369e-01 -7.101205e+00 60 52 54
-1.144330e+00 -3.475511e-01 -7.526090e+00 173 174 171
-8.910319e-01 -1.908977e-01 -7.102145e+00 163 165 164
-9.399796e-01 -1.453050e-01 -7.084404e+00 64 64 74
-9.078738e-01 -1.701784e-01 -7.074637e+00 95 93 105
-9.202582e-01 -1.693690e-01 -7.066280e+00 96 92 107
-9.227375e-01 -1.690606e-01 -7.064813e+00 97 94 113
-3.413465e+01 -3.170944e+00 -6.153747e+01 15 9 9
-8.973720e-01 -1.710212e-01 -7.081772e+00 90 89 105
-2.860377e+01 -1.059697e+01 -5.508551e+01 83 83 83
-3.112293e+01 -1.007522e+01 -5.748437e+01 3 3 1
-2.805392e+01 -1.102527e+01 -5.412372e+01 83 83 83
-2.950080e+01 -1.041468e+01 -5.180852e+01 69 69 67
-3.300792e+01 -9.509848e+00 -5.208643e+01 61 62 62
-2.642984e+01 -8.716692e+00 -5.652843e+01 59 60 62
-3.255439e+01 -7.599032e+00 -6.105079e+01 68 70 69
-3.219949e+01 -8.058073e+00 -5.788070e+01 82 82 82
-3.219949e+01 -8.058073e+00 -5.788070e+01 82 82 82
-3.076744e+01 -3.845625e+00 -5.990129e+01 52 52 50
-3.651959e+01 -7.956200e+00 -5.698591e+01 61 61 61
-2.878150e+01 -1.153024e+01 -5.288467e+01 4 4 2
-3.413331e+01 -7.122990e+00 -5.631239e+01 70 72 71
-9.420991e-01 -1.509467e-01 -7.088429e+00 55 58 65
-3.895246e+01 8.801927e+00 -6.945504e+01 75 75 73
-9.396385e-01 -1.799167e-01 -7.064692e+00 50 56 63
-8.860490e-01 -1.887659e-01 -7.099468e+00 103 105 104
-2.950080e+01 -1.041468e+01 -5.180852e+01 69 69 67
-3.172859e+01 4.158572e+00 -7.014139e+01 14 16 14
-4.252797e+01 7.835068e+00 -6.596092e+01 15 20 13
-9.357235e-01 -1.683279e-01 -7.058947e+00 39 48 51
-3.344384e+01 1.213085e+01 -8.248525e+01 43 42 34
-3.222152e+01 -9.861180e+00 -5.038065e+01 6 10 6
-3.452210e+01 -9.095208e+00 -5.449040e+01 14 15 14
-2.809339e+01 -7.816939e+00 -5.746009e+01 62 63 65
-4.057936e+01 5.859920e+00 -6.291018e+01 55 57 54
-9.371602e-01 -1.859238e-01 -7.070607e+00 76 83 93
-9.227375e-01 -1.690606e-01 -7.064813e+00 97 94 113
-2.886156e+01 1.233454e+01 -7.219147e+01 17 16 14
-8.973720e-01 -1.710212e-01 -7.081772e+00 90 89 105
-3.014461e+01 -1.063715e+01 -5.495530e+01 75 71 71
-3.232836e+01 -9.682182e+00 -5.008329e+01 3 6 3
-9.459502e-01 -1.477857e-01 -7.078176e+00 66 68 73
-9.285427e-01 -1.742456e-01 -7.060583e+00 86 97 119
-9.157675e-01 -1.474803e-01 -7.098569e+00 76 73 87
-1.146348e+00 2.576788e-02 -7.512318e+00 118 116 117
-8.941128e-01 -1.880323e-01 -7.096018e+00 88 94 100
-9.326960e-01 -1.860169e-01 -7.072490e+00 70 76 97
-9.392831e-01 -1.776001e-01 -7.060168e+00 88 93 97
-2.847240e+01 -9.181083e+00 -6.150292e+01 25 26 28
-8.991112e-01 -1.608362e-01 -6.939633e+00 0 255 0
-9.026034e-01 -1.664143e-01 -6.989198e+00 255 255 0
-9.029307e-01 -1.795544e-01 -6.941089e+00 255 0 0
-9.070239e-01 -1.762001e-01 -6.990809e+00 255 255 0
