ply
format ascii 1.0
element face 0
property list uchar int vertex_indices
element vertex 112
property float x
property float y
property float z
property uchar diffuse_red
property uchar diffuse_green
property uchar diffuse_blue
end_header
-9.150755e-01 -1.494733e-01 -7.053675e+00 174 176 175
-9.278522e-01 -1.546020e-01 -7.038899e+00 30 31 52
-9.264922e-01 -1.572705e-01 -7.036787e+00 23 21 21
-9.214266e-01 -1.575624e-01 -7.039919e+00 26 27 30
-9.226662e-01 -1.626344e-01 -7.033602e+00 93 90 102
-9.206692e-01 -1.626873e-01 -7.034949e+00 95 93 105
-1.038892e+00 -2.506087e-01 -7.257630e+00 173 174 171
-9.117845e-01 -1.736791e-01 -7.048653e+00 163 165 164
-9.378736e-01 -1.494348e-01 -7.040796e+00 64 64 74
-9.206830e-01 -1.626936e-01 -7.035042e+00 95 93 105
-9.272919e-01 -1.622783e-01 -7.030700e+00 96 92 107
-9.285909e-01 -1.621169e-01 -7.029887e+00 97 94 113
-9.150812e-01 -1.631238e-01 -7.038574e+00 90 89 105
-9.386641e-01 -1.528798e-01 -7.040010e+00 55 58 65
-9.382159e-01 -1.679738e-01 -7.032120e+00 50 56 63
-9.090675e-01 -1.723521e-01 -7.047168e+00 103 105 104
-9.355759e-01 -1.617866e-01 -7.027059e+00 39 48 51
-9.362602e-01 -1.710495e-01 -7.033017e+00 76 83 93
-9.286215e-01 -1.621222e-01 -7.029966e+00 97 94 113
-9.150812e-01 -1.631238e-01 -7.038574e+00 90 89 105
-9.414733e-01 -1.507517e-01 -7.038097e+00 66 68 73
-9.317209e-01 -1.648940e-01 -7.027729e+00 86 97 119
-9.249664e-01 -1.505619e-01 -7.047873e+00 76 73 87
-1.065658e+00 -4.490537e-02 -7.307861e+00 118 116 117
-9.133232e-01 -1.722183e-01 -7.046739e+00 88 94 100
-9.338304e-01 -1.711167e-01 -7.033703e+00 70 76 97
-9.373839e-01 -1.666833e-01 -7.027302e+00 88 93 97
-9.353160e-01 -1.811870e-01 -7.033327e+00 176 176 176
-9.077525e-01 -1.810037e-01 -7.056878e+00 171 173 170
-9.188806e-01 -1.521179e-01 -7.049919e+00 66 65 81
-1.066728e+00 -4.513113e-02 -7.323028e+00 124 122 123
-9.372598e-01 -1.716649e-01 -7.031465e+00 177 179 178
-9.236288e-01 -1.715151e-01 -7.040075e+00 75 86 108
-9.380879e-01 -1.701471e-01 -7.031169e+00 46 53 59
-9.377996e-01 -1.620043e-01 -7.028655e+00 151 160 163
-9.270564e-01 -1.504895e-01 -7.046051e+00 78 76 90
-9.235574e-01 -1.715437e-01 -7.040063e+00 73 84 106
-9.161562e-01 -1.720177e-01 -7.044898e+00 77 85 107
-9.382637e-01 -1.492345e-01 -7.040605e+00 65 65 75
-1.074223e+00 -3.735966e-02 -7.317939e+00 10 12 13
-9.380723e-01 -1.686181e-01 -7.028746e+00 90 96 102
-9.193960e-01 -1.611424e-01 -7.037228e+00 32 30 38
-9.269769e-01 -1.585180e-01 -7.034443e+00 83 82 104
-9.389214e-01 -1.578342e-01 -7.029066e+00 99 104 108
-9.431004e-01 -1.523655e-01 -7.035935e+00 86 90 93
-9.364400e-01 -1.655127e-01 -7.026928e+00 95 102 106
-9.360095e-01 -1.653245e-01 -7.025610e+00 95 102 106
-9.352425e-01 -1.633307e-01 -7.026378e+00 80 89 92
-9.233616e-01 -1.584993e-01 -7.037086e+00 65 63 66
-9.243390e-01 -1.583972e-01 -7.036517e+00 64 62 63
-9.226953e-01 -1.574349e-01 -7.038918e+00 65 65 67
-9.227226e-01 -1.574484e-01 -7.039068e+00 65 65 67
-9.252450e-01 -1.572166e-01 -7.037421e+00 66 64 65
-9.267039e-01 -1.560230e-01 -7.037595e+00 63 65 69
-9.258034e-01 -1.560357e-01 -7.038184e+00 68 71 74
-9.258184e-01 -1.560383e-01 -7.038270e+00 68 71 74
-9.364113e-01 -1.350313e-01 -7.048959e+00 183 183 183
-9.068700e-01 -1.790729e-01 -7.043455e+00 179 179 178
-9.506836e-01 -1.507711e-01 -7.047814e+00 121 123 122
-9.360229e-01 -1.510933e-01 -7.038743e+00 64 61 80
-9.367126e-01 -1.641232e-01 -7.026666e+00 47 54 60
-9.378699e-01 -1.622127e-01 -7.028746e+00 148 156 159
-9.366328e-01 -1.682991e-01 -7.024977e+00 112 120 125
-9.371514e-01 -1.682498e-01 -7.026720e+00 112 120 125
-9.353791e-01 -1.633615e-01 -7.026711e+00 91 100 103
-1.066990e+00 -1.796063e-01 -7.312214e+00 166 168 164
-1.085211e+00 -1.882970e-02 -7.349212e+00 49 50 50
-1.067025e+00 -2.430449e-02 -7.312112e+00 95 94 90
-1.067025e+00 -2.430449e-02 -7.312112e+00 95 94 90
-9.236932e-01 -1.549849e-01 -7.042605e+00 33 35 51
-9.365117e-01 -1.674388e-01 -7.029774e+00 48 54 60
-9.374577e-01 -1.616504e-01 -7.027544e+00 152 160 163
-9.280578e-01 -1.531981e-01 -7.041960e+00 92 88 105
-9.226535e-01 -1.626541e-01 -7.033680e+00 98 91 109
-9.282699e-01 -1.561273e-01 -7.036533e+00 80 82 108
-9.272651e-01 -1.622628e-01 -7.030728e+00 98 94 111
-9.358921e-01 -1.644866e-01 -7.026896e+00 154 159 163
-9.222639e-01 -1.565817e-01 -7.041665e+00 62 66 69
-9.417317e-01 -1.521250e-01 -7.034024e+00 138 144 148
-1.036827e+00 -1.593271e-01 -7.243758e+00 55 57 54
-9.363565e-01 -1.598256e-01 -7.027196e+00 43 51 54
-9.217860e-01 -1.719290e-01 -7.042308e+00 81 89 110
-9.150640e-01 -1.632061e-01 -7.039095e+00 93 90 109
-9.336751e-01 -1.709992e-01 -7.033328e+00 72 78 100
-9.186298e-01 -1.528791e-01 -7.047522e+00 68 65 82
-9.359909e-01 -1.650875e-01 -7.026702e+00 107 114 120
-9.359909e-01 -1.650875e-01 -7.026702e+00 107 114 120
-9.391595e-01 -1.616359e-01 -7.034006e+00 154 159 163
-9.160193e-01 -1.577815e-01 -6.963038e+00 0 255 0
-9.195123e-01 -1.633077e-01 -7.012609e+00 255 255 0
-9.180225e-01 -1.678124e-01 -6.963842e+00 255 0 0
-9.221446e-01 -1.643830e-01 -7.013554e+00 255 255 0
-9.185956e-01 -1.433017e-01 -6.961898e+00 0 255 0
-9.243048e-01 -1.550171e-01 -7.010169e+00 255 255 0
-9.174773e-01 -1.522198e-01 -6.965899e+00 255 0 0
-9.199409e-01 -1.688497e-01 -7.012988e+00 255 255 0
-9.177996e-01 -1.566423e-01 -6.964676e+00 0 255 0
-9.215322e-01 -1.657699e-01 -7.013694e+00 255 255 0
-9.184887e-01 -1.600508e-01 -6.963860e+00 255 0 0
-9.213078e-01 -1.632707e-01 -7.013676e+00 255 255 0
-9.183239e-01 -1.691914e-01 -6.961781e+00 0 255 0
-9.250553e-01 -1.782644e-01 -7.010488e+00 255 255 0
-9.193044e-01 -1.705542e-01 -6.962190e+00 255 0 0
-9.258133e-01 -1.726819e-01 -7.011719e+00 255 255 0
-9.196651e-01 -1.717817e-01 -6.962509e+00 0 255 0
-9.261020e-01 -1.691692e-01 -7.012024e+00 255 255 0
-9.197101e-01 -1.714155e-01 -6.962999e+00 255 0 0
-9.252855e-01 -1.643162e-01 -7.012178e+00 255 255 0
-9.246945e-01 -1.577355e-01 -6.975966e+00 0 255 0
-9.287133e-01 -1.661513e-01 -7.025089e+00 255 255 0
-9.255955e-01 -1.706881e-01 -6.977635e+00 255 0 0
-9.287285e-01 -1.700790e-01 -7.027533e+00 255 255 0
